# .PCD v0.7 - Point Cloud Data file format
VERSION 0.7
FIELDS x y z
SIZE 4 4 4
TYPE F F F
COUNT 1 1 1
WIDTH 1903
HEIGHT 1
VIEWPOINT 0 0 0 1 0 0 0
POINTS 1903
DATA ascii
-6.21096 -0.22890 0.00707
-4.81096 -4.55357 0.49234
-3.30544 4.70447 0.10000
0.94485 -2.89962 -0.00000
1.84601 2.68870 0.10000
2.05922 3.20001 -0.00000
1.90727 -3.75979 0.01500
-0.17453 3.74515 0.57999
-4.02656 -1.93219 0.28500
-2.97821 -0.97720 0.18000
-4.51615 4.11888 -0.01500
-0.94807 -4.56270 0.38488
4.43256 3.66635 -0.00638
5.33559 -3.94878 0.28426
5.73437 4.36088 0.53721
5.59730 3.77435 0.40708
-1.07129 -3.59365 0.03255
3.19218 4.91135 0.13506
-4.68457 -4.11764 0.01500
1.17404 -4.62767 0.07090
4.54918 -4.83218 0.01500
8.27186 -3.62365 0.19177
-6.11096 0.97679 0.05882
-4.66051 -0.09435 0.40500
-3.36363 -0.42557 0.27000
-0.11814 -3.69655 0.83677
-4.42217 -0.08873 0.40500
4.73982 -3.13218 0.25981
6.44870 2.93820 -0.00000
-1.32498 3.58480 0.17414
2.04322 -3.63865 0.05825
-0.22197 2.65938 0.15633
5.57020 -4.91865 0.10191
5.81694 -4.47850 0.08101
4.41137 2.77693 0.55619
-0.84171 -3.57865 0.07098
4.13012 -4.29864 0.15859
6.86403 3.45103 0.03897
-1.94792 2.46635 0.61601
-7.71104 -1.02977 -0.01500
-1.56525 -2.57768 0.42774
-2.18418 3.04611 0.55672
-2.08033 3.16888 0.65428
6.71334 -2.47365 0.06890
-1.55244 -2.65715 0.32457
-2.78649 -4.82365 0.21847
5.40920 4.20877 0.46561
-2.21982 -2.96620 1.20807
4.79499 3.66635 0.00986
-4.94778 -0.29518 0.40500
-4.12612 -0.20021 0.30000
-4.82596 2.84968 0.13831
-2.15152 -3.60865 0.13582
0.83400 -2.73184 0.01500
-1.98858 4.43848 0.09391
-5.91096 0.72300 0.25404
6.01327 -3.46643 -0.00000
-3.91096 -2.13076 0.31479
1.67271 2.88072 -0.00000
-1.61849 -3.63865 0.10082
-2.20228 -3.86696 0.05165
5.69345 -4.29264 0.01500
-3.17278 4.86635 0.01729
-0.26377 3.68135 0.20036
6.01904 -3.75938 0.37159
4.41874 -3.12577 0.16256
4.84353 -4.79264 0.09986
-2.01343 -2.74158 0.49237
-0.85916 -4.30624 0.44260
-0.66676 3.97886 0.46362
-3.33200 4.88135 0.48211
8.20376 3.32157 0.08598
-3.49289 -0.21754 0.13500
2.52434 4.91135 0.33806
4.55440 -2.37365 0.42621
-0.85737 -4.27975 0.45623
3.58904 -3.62846 0.26875
-3.45684 -0.33091 0.25500
5.63480 -4.57052 0.08709
-0.69431 2.46635 0.22764
-4.99368 -2.15547 0.13500
-4.12227 -1.65327 0.12000
-1.76511 4.86635 0.29068
3.96842 -3.71802 0.25052
-1.63431 2.46635 0.31271
-3.97516 -2.53875 0.12000
4.84999 2.73613 0.32961
-5.11094 1.07583 0.39000
-0.10773 -3.88804 0.61289
-2.17266 -4.16916 0.04122
5.28961 -2.77076 0.16500
-2.47090 0.84871 0.12000
4.93154 2.48135 0.19460
-0.25713 3.49406 0.04670
-4.23689 4.72195 -0.01500
-0.56297 2.94766 0.14418
3.76223 -2.79880 0.04934
-7.71096 0.87808 0.19892
4.62607 3.68135 0.25401
-2.36909 -3.34418 0.35794
2.38904 2.90157 0.10904
-0.95218 2.57810 0.21107
5.66808 -2.42365 0.27846
6.55754 2.72491 -0.00000
-4.40252 2.47637 0.15000
7.18425 3.69635 0.00641
7.05503 3.69714 0.60000
0.83651 -3.58788 0.01500
-7.19606 0.48226 -0.01500
3.77499 -3.26840 0.01500
-7.70886 -1.14833 0.43500
-0.33294 3.52917 0.06068
-2.83571 -4.38118 0.00000
4.62570 3.38348 0.44949
2.30686 4.29687 -0.01500
-1.18167 3.69635 0.26956
5.00947 3.19786 0.31318
-5.64200 -0.96824 0.29116
-4.75500 1.75114 0.12000
1.63913 -4.22866 0.00000
-5.12596 -2.35874 0.69193
8.26309 2.50473 -0.00000
2.83416 -4.85365 0.18043
-7.56217 -0.16824 0.02242
1.58718 -2.39365 0.60975
-2.24439 4.36402 0.14443
-0.70139 3.87973 0.43597
-5.12596 -2.05742 0.66512
4.91480 -2.71253 0.15535
-1.87052 -2.59061 0.50953
-0.06132 -3.16344 0.04029
7.16717 3.33751 0.08171
-5.53001 -1.14054 0.59754
0.61810 2.46635 0.13657
4.55185 4.31135 0.32614
-0.85766 3.69635 0.18944
1.33744 4.89635 0.25373
6.24458 2.50534 -0.00000
3.25434 -4.68003 0.15535
4.50740 4.02170 0.24234
-2.60673 1.23635 0.05749
-2.42510 -4.65397 0.11500
3.65784 3.80457 0.04221
-4.20235 2.34327 0.27000
-2.91502 1.09458 0.12000
-5.31815 -1.07865 0.00366
-0.39148 -3.59588 0.09770
4.22016 4.84635 0.24462
4.58238 -3.13218 0.04782
-5.64191 1.17775 0.86004
3.98126 -4.09715 0.15859
-7.24332 -1.17115 0.39515
-1.32097 -4.31327 0.30333
-7.61096 -0.87251 0.29756
-0.36653 3.20691 0.19507
-5.07806 -1.99717 0.27000
-2.17620 3.66635 0.98776
5.77345 -4.79935 0.43750
-4.56000 2.69646 0.12000
-1.56601 -3.60865 0.51294
4.62876 -2.68787 0.13683
-2.13929 -3.75909 0.06853
-4.07004 -1.31796 0.28500
1.84624 2.46635 -0.01220
5.77490 2.69573 0.09770
-2.33572 3.85993 0.01643
-3.92660 -0.04103 0.27000
-2.87120 -4.82365 0.17001
-0.93013 -2.40865 0.01608
5.78617 -3.57365 0.08627
-0.74065 3.55336 0.15440
6.62901 -2.82236 0.15830
-4.46624 -1.16912 0.27000
-3.53117 0.89318 0.27000
-2.68597 4.24607 -0.00000
-0.45428 -4.82365 0.19478
5.79605 -4.60362 0.43750
6.64995 3.26824 -0.01500
1.16022 -3.10684 -0.00000
-4.78513 0.68635 0.30519
-4.39706 -3.75403 0.03000
3.58762 -4.43006 0.15859
7.18780 2.55495 -0.01500
-2.20573 -3.22947 0.59935
3.25211 -3.68865 0.11364
1.71347 2.45135 0.51106
-6.36654 -1.17115 0.40621
4.80454 -4.13230 0.12434
-1.26025 -3.89664 0.33513
3.68989 4.50319 -0.01061
-0.70779 4.34068 0.55616
-5.09756 0.90518 0.40500
-0.40199 -3.90497 0.56510
-2.81486 -0.23737 0.13500
6.70404 2.56200 0.04818
3.20927 -4.85365 0.34493
-5.07279 -2.09958 0.27000
5.69510 -2.42365 0.21474
-0.62776 2.76632 0.16154
-7.41096 0.54962 0.04516
4.27008 4.19610 0.17875
-7.79879 -0.46288 -0.01500
-0.57951 -4.82365 0.73102
-0.08500 -4.50763 0.71307
7.20244 -3.46202 0.01500
-0.24354 2.46635 0.25725
3.59307 -4.17550 0.00000
-5.00655 -0.82804 0.25500
6.00404 -4.67394 1.20551
5.42172 3.58914 0.13275
-4.28288 -0.48819 0.12000
-1.56537 -4.38968 0.23784
-2.78231 -0.22761 0.13500
5.75438 3.31491 0.02175
1.65564 -3.41629 -0.00000
1.33794 -2.40865 0.54036
2.62467 3.74635 0.01862
6.10303 -3.62365 0.36856
-3.18998 4.85531 0.10000
5.27628 -2.90188 0.03090
1.66493 -2.45865 0.04603
4.09557 -4.72340 0.00000
-4.03431 -0.75814 0.25500
5.46752 -2.47365 0.10704
0.04711 2.46635 0.39853
2.56458 -3.66142 0.01500
-0.36333 2.51635 0.09640
4.94931 -3.45531 0.12048
5.70110 4.91135 0.24564
4.57910 3.84154 0.26318
-2.10574 4.88135 0.43364
5.81663 4.48342 0.62471
4.50443 2.54635 0.46646
-5.10887 0.15793 0.13500
-4.76560 0.65185 0.27000
2.16122 3.39357 -0.00000
-4.81096 2.98239 0.57459
2.38903 2.90357 -0.00311
-3.61096 -2.63408 0.08406
8.03217 3.69635 0.08252
-2.19156 3.71635 0.11143
2.93032 4.39634 0.15953
3.93454 -4.83865 0.35778
-3.57742 0.58635 0.08101
3.64123 3.66635 0.28631
5.69798 3.88574 0.52746
-4.12287 4.56215 -0.00000
1.70970 3.72017 -0.00000
5.04052 -3.46555 0.14104
-3.89596 -1.44297 0.43682
-2.41135 4.15324 0.10000
-4.92532 -0.13369 0.13500
4.32889 3.10790 0.60547
4.11135 -4.43918 0.15535
-1.73263 3.46625 0.56111
3.55904 -2.73321 0.59671
7.98664 -2.47365 0.08892
5.38351 3.95583 0.47709
3.79266 -2.35865 1.14925
-4.66333 -0.54312 0.42000
7.44069 3.69189 -0.01500
3.28321 -4.43057 0.01500
3.58904 -3.43122 0.51313
3.29526 -4.36858 0.10709
-0.88130 -3.72774 0.32003
-2.12687 3.26648 0.54136
-2.19892 -4.72147 0.05256
-4.47451 2.08861 0.27000
-0.39341 -4.82365 0.15817
4.05922 3.20319 0.59788
5.19048 -4.47209 0.29154
-4.36256 -1.87246 0.28500
6.41404 2.80140 0.02873
1.76142 2.91963 -0.00000
-4.08086 3.86995 -0.00000
-7.61096 0.87260 0.23841
-3.89596 1.33257 0.55389
2.92728 -3.63865 0.15586
-7.40053 -0.87407 -0.01500
1.55197 2.46635 0.08109
-4.01096 -2.36110 0.20373
6.01904 -4.12787 0.07324
-5.11096 -1.36701 0.43396
6.53542 -2.79880 0.15690
3.79770 -2.79699 0.26126
-1.57264 -4.45482 0.27538
1.18904 4.10446 0.21593
-1.50077 -4.38738 0.29301
6.03904 2.59916 0.04886
-3.96341 2.25612 0.25500
0.94955 3.66635 0.46428
3.63904 -3.54389 0.05882
5.32701 -4.91865 0.89044
1.27854 -4.83865 0.07984
-1.33926 4.69512 0.28343
-0.69781 3.28477 0.28384
1.85416 3.84715 -0.00000
-4.63794 -2.42444 0.12000
5.60618 -3.10070 0.15859
-1.21698 4.51302 0.41972
6.40229 -2.79880 0.08124
-4.73846 -3.49365 0.02329
-0.99609 -3.91180 0.40591
-0.60683 -3.93769 0.49468
-2.14737 3.07997 0.54685
2.87727 4.62135 0.10609
-4.59034 1.63307 0.27000
-0.13172 4.63912 0.58862
-3.47719 0.36135 0.25500
-0.07522 4.46079 0.71952
-7.61096 0.55635 0.04771
7.03117 3.69635 0.06178
0.97109 -2.88016 0.01500
-1.46396 -3.45554 0.40060
0.81684 2.57542 0.10000
2.19326 -3.45325 -0.00000
-3.94199 2.66961 0.15000
-2.94824 -0.87020 0.18168
5.70730 4.74057 0.60820
-0.11512 -4.74074 0.62644
-8.01727 0.63135 0.04690
1.10758 -3.51301 0.01500
3.96842 -2.76192 0.21007
-1.47109 2.98593 0.38751
-4.81096 2.92202 0.49565
-1.22513 -3.51102 0.33660
-4.92233 2.17486 0.25500
-5.02458 1.16296 0.27000
-5.51096 -0.70427 0.00285
3.57404 -2.69823 0.30395
-2.79507 4.88135 0.24179
-4.35285 4.70167 0.10000
-2.85334 -3.61022 0.11500
6.00404 -4.23221 0.21722
-0.89935 2.84337 0.23431
1.18904 -3.66285 0.59589
5.38638 -4.40251 0.15859
-7.52330 1.24385 0.16001
4.22150 -2.81165 0.28376
4.90443 2.49635 0.23294
-2.99382 1.23635 0.04291
3.37731 4.90909 -0.00000
-4.91299 -2.21652 0.27000
-3.17960 -1.04755 0.28500
-0.58217 3.31781 0.14932
4.79003 4.81763 0.23442
3.94919 -3.38918 0.19354
-0.88725 -3.41856 0.24607
-2.29177 3.18824 0.67339
-5.93598 -0.66824 0.17467
4.17410 -3.13278 0.18106
6.37746 -3.51526 0.01500
-4.25596 2.60148 0.13500
-5.75435 -0.46824 0.01437
-2.06060 2.45135 0.37882
4.52497 -3.24629 0.15859
1.62622 -2.56112 0.03000
-0.65674 -3.07049 0.16244
-6.63433 0.58626 -0.01500
7.76656 3.02241 0.03248
-1.98105 -4.82365 0.57716
-4.01863 -4.47009 0.01500
1.25720 -2.55986 0.01500
-1.44462 2.63875 0.36488
-5.01710 -0.74464 0.27000
2.70695 4.11464 0.09764
4.60793 -2.81163 0.27163
-3.89480 2.55133 0.19436
-3.36752 -0.10986 0.12000
2.38904 -2.70877 0.31627
-0.55155 -3.39016 0.11873
-4.46631 4.15619 -0.00000
-1.97720 4.81635 0.16828
-4.08369 0.03635 0.54610
5.49016 2.49635 0.17652
-0.54041 2.58182 0.13813
3.97935 -2.35865 0.76797
-3.87595 4.86635 0.44001
5.15590 3.55630 0.21950
2.57114 3.85936 -0.00000
-7.70401 1.24385 0.37574
4.59953 2.82896 0.34672
-2.93299 0.92899 0.18898
-0.11053 4.41383 0.85131
6.57060 3.69635 0.46720
2.03422 -2.40865 0.06398
1.87170 -2.84544 0.01500
3.83863 3.69635 1.16443
3.57975 4.91135 0.13854
0.35865 3.66635 0.43053
4.66613 2.64296 0.31335
-8.27901 -0.37630 0.01488
5.94913 3.89218 0.56580
-5.81096 0.68161 0.16079
-3.90099 -2.55275 0.13500
5.94852 -2.98224 0.11440
3.63363 -3.62365 0.28818
0.80648 -2.95375 0.01500
-4.25140 0.75491 0.12000
3.87495 -4.78865 0.11117
4.06440 4.56482 0.06329
2.20222 3.44991 -0.00000
7.22213 -2.75684 0.15859
2.24797 2.58517 0.10000
3.70211 -2.48466 0.34660
4.12373 -4.15154 0.08844
-1.99119 -3.46147 0.50448
1.75818 4.23215 0.12913
0.40664 -2.44862 0.01500
6.45706 2.48135 0.56417
-6.74832 1.20267 0.03500
-0.97968 2.65161 0.35936
4.30121 4.31135 0.29162
-5.11096 -1.53467 0.13041
1.98929 3.14370 -0.01500
4.87935 4.30620 0.32364
4.43118 -3.80427 0.24900
-6.86043 0.04796 -0.01500
3.59985 -3.90400 0.11500
-2.87211 -0.49728 0.13500
-1.31825 -4.11346 0.30406
-0.07895 -4.11066 0.69051
-3.67348 2.52139 -0.00000
-3.44155 0.02135 0.50340
-4.81096 -4.61532 0.51451
-1.79075 3.04872 0.45763
5.99221 -4.91865 0.85601
6.12195 3.08134 0.00104
-2.19937 4.79320 0.05296
-0.54820 -3.60865 0.51534
-1.04711 4.47084 0.46524
-4.13689 -3.53336 0.13500
6.40032 3.09635 0.04258
-1.52954 -3.63865 0.19363
2.96389 4.77177 0.01894
-4.43738 -3.66394 0.01500
6.00404 -4.12509 0.11363
-6.11096 0.96760 0.14092
-1.57441 3.32019 0.39333
4.77204 4.22038 0.27935
6.69134 3.71135 0.01467
4.54138 -4.81357 0.00000
3.03277 3.76035 0.08821
4.79113 -4.15154 0.21538
-0.29902 -3.76239 0.69622
0.49996 -2.40865 0.23834
4.25206 -2.87661 0.43750
-4.35352 2.94214 0.15000
0.46561 3.66635 0.57257
-3.83097 -2.41673 0.15000
-4.34622 -4.75993 0.01500
6.27713 -2.80521 0.01793
-7.41096 0.51892 0.11373
-1.84101 -3.92936 0.17951
0.58922 -2.92496 0.03000
-4.30773 2.98006 0.13500
-4.82596 4.53408 0.44080
-4.33746 -3.56251 0.15000
-5.39159 1.10994 0.25500
-4.89458 1.50864 0.28500
4.61594 -3.34196 0.29471
-1.42436 -4.10739 0.26010
-3.64647 3.18289 0.15000
-4.29857 -1.11963 -0.00000
-0.01096 2.67714 0.05119
-1.90714 -4.15780 0.14627
1.43874 -3.60865 0.10279
0.23008 3.64647 0.10000
0.38677 -3.35234 0.07683
-3.32401 3.77788 -0.00000
-1.70994 2.54242 0.55503
3.23241 4.04534 -0.01500
4.11549 4.11009 0.12180
6.00159 3.03641 -0.00000
-5.70096 -0.96824 0.10697
-0.61142 -2.65249 0.17216
-2.38409 3.45161 0.47578
-2.09354 4.06316 0.06579
3.11373 3.69635 0.27583
-1.62998 3.88654 0.20553
2.37503 4.34295 0.12856
-2.92919 0.51648 0.19190
7.83157 2.88703 -0.00000
-3.69520 2.64060 0.15000
-2.36909 3.58156 0.49545
-4.23689 -0.93989 0.27000
1.28904 4.01360 0.05311
2.67949 3.69635 0.22900
1.65088 -3.26393 0.01500
-3.93005 -0.57071 0.27000
4.29499 -3.14179 0.19707
-6.10417 -1.10795 0.16500
-2.52415 -0.32515 0.13500
-2.72714 -0.24418 0.12000
-8.25190 0.26863 0.03767
6.00404 -4.64277 0.31237
3.69502 4.31159 0.00914
3.38630 3.69635 0.01722
2.57939 -4.12589 0.11552
1.16368 2.99532 -0.00000
-1.76577 4.88135 0.62056
-6.20901 1.21740 -0.01500
1.17404 4.61944 0.55063
-1.87939 0.03635 0.08789
3.87971 3.75529 0.07415
6.35959 3.32592 -0.00000
-5.52959 -0.96824 0.09732
-3.61480 3.96640 -0.00000
-5.12596 -1.46677 0.36990
2.85609 -4.21112 0.15535
-0.94780 -4.44484 0.38779
0.57267 3.28322 -0.00000
8.38904 3.32467 0.07862
2.28399 4.71949 0.03295
4.67480 -2.56258 0.01500
5.34565 4.67445 0.51356
4.89443 2.98049 0.27404
-6.11096 -0.31456 0.06022
-7.70447 1.02885 0.09663
0.42373 -3.25878 0.13000
2.56240 -3.81816 0.08665
-0.05087 -4.27003 0.59516
-0.39341 -4.39030 0.55187
-5.81096 -1.02586 0.02175
1.69788 -4.77792 0.01500
5.14733 -2.57301 -0.00000
4.82086 3.26486 0.41403
-1.77127 -2.40177 -0.00000
0.75023 -3.07084 0.01500
-7.61096 -0.67262 0.13686
-3.77815 -3.09574 0.13500
3.57404 -2.76122 0.41950
5.57010 -4.83865 0.28152
5.63450 4.50806 0.40692
7.78216 3.60962 -0.01500
-3.96906 -1.76168 0.25500
-2.08257 -3.87559 0.11479
7.20404 -3.63700 0.51657
-4.67556 2.28829 0.12000
-1.51824 2.51635 0.54208
7.81056 3.41385 0.06125
0.97109 3.66635 0.39228
5.96867 -3.10394 0.12988
-3.67194 -4.25164 0.00000
-5.23824 -0.63038 0.27000
6.61619 -2.65414 0.14911
-7.51096 -1.04233 0.07773
0.27539 3.21417 0.10000
-0.08456 -4.82229 0.60073
6.00404 -4.68145 0.64448
1.45997 -3.00641 -0.00000
-5.47043 0.42885 0.15255
-5.12596 1.26106 0.64637
8.38904 3.39637 0.22644
5.44189 -4.91865 0.09921
-3.96807 -2.48316 0.16500
3.33339 -4.83865 0.41041
-2.80344 -1.08504 0.15000
2.38904 -3.58939 0.58265
-4.70508 -4.80865 0.23877
-3.91096 1.31377 0.06458
-3.26932 4.21751 -0.00000
-3.59667 0.13635 0.08423
2.94335 -4.29919 0.06113
3.34554 -4.33513 0.01500
-5.51096 1.05458 -0.00009
1.22431 -4.78865 0.09465
-4.76819 -4.80865 0.51749
6.12892 -2.97207 0.15859
5.62801 3.12569 0.07747
-5.15792 0.45214 0.12000
-1.43687 -4.80865 0.17161
-3.70326 -4.63903 0.03000
3.65189 -4.28942 0.00000
0.41171 3.36274 0.10000
-5.10241 -1.81489 0.12000
3.67186 -3.25157 0.28426
5.14503 4.73986 0.46863
0.89179 -3.60865 0.05407
-1.54364 3.24706 0.58565
-1.71097 -4.80148 0.19883
-8.09942 0.59518 0.01123
-0.34122 2.84898 0.08476
-2.26374 2.98925 0.97120
3.96201 -3.71351 0.14040
4.86654 4.52471 0.30467
3.94919 -3.88665 0.06465
-4.00080 1.23635 0.43068
-5.85023 -0.66824 0.00480
-4.24344 1.80587 0.28500
-1.86434 -1.07865 0.10717
-3.23808 3.98455 -0.01500
7.97445 2.55090 -0.00000
3.09591 -4.05224 0.00000
5.55332 4.53074 0.50422
0.83397 -2.39365 0.18002
-0.72985 -3.53400 0.20389
4.35030 -2.47365 0.08701
-2.30007 -3.24364 0.58724
-5.07879 -0.84236 0.12000
2.36186 4.33102 0.08528
-5.11096 2.15493 0.70725
3.63091 3.45005 0.40022
-2.16345 -2.62921 0.56616
-4.61492 0.26849 0.12000
0.96419 -3.18125 0.01500
3.63091 3.21940 0.45818
5.29551 -4.01749 0.21426
3.27034 3.69635 0.32446
7.97457 2.50645 -0.01500
-2.33537 0.53099 0.13500
4.43789 2.71861 0.27351
-4.00539 0.47875 0.13500
-4.11109 -0.52040 0.36401
-3.82367 0.99001 0.13500
4.95573 -3.21502 0.09358
7.66848 2.52316 -0.01500
-4.08415 -3.28788 0.13500
-3.81452 1.23635 0.40298
3.74922 4.28134 0.04244
1.44475 2.98537 0.10000
-5.03664 -0.54774 0.27000
4.30338 -2.45572 0.01500
-3.00509 4.77860 -0.01500
5.16573 -3.81175 0.36996
-2.65494 3.66635 0.35046
-0.21483 -4.25733 0.61525
-1.29023 2.51635 0.34798
1.00331 3.66635 0.01698
-2.62616 0.02135 0.44525
-4.24689 2.98528 0.15000
3.55874 3.98787 0.10300
-2.99148 -3.59365 0.28573
4.85757 -2.81804 0.07079
-0.14139 3.07365 0.03121
4.10089 4.49055 0.13342
1.27839 -2.64303 0.10296
-7.50386 -0.56824 0.23030
6.27887 -2.40865 0.29586
1.10289 -2.78567 0.01500
-8.08782 -0.57365 0.04671
4.81723 3.31712 0.31025
-2.50969 0.69509 0.12000
-0.70760 3.60014 0.16107
-4.67950 -0.64843 0.27000
-4.78775 -3.02741 0.13500
5.04147 -4.83865 0.09922
-2.50515 -0.16182 0.12000
7.51099 3.09635 0.01884
-5.06656 -1.72354 0.28500
-5.81096 -0.35122 0.03770
-7.36337 -0.60015 -0.01500
1.18904 3.80611 0.26108
0.05689 -2.58846 0.03000
2.38904 3.23737 0.04352
-3.30282 -0.10541 0.25500
-4.71408 0.97190 0.25500
-0.79744 -3.62365 0.04767
-1.34656 -4.69695 0.36715
0.07226 2.94646 -0.00000
-7.76457 -1.16824 0.31522
8.30573 2.52888 -0.00000
0.14586 2.46635 0.02177
-1.27876 -2.46923 0.31358
1.90078 -3.26542 0.07862
-1.41895 -3.81438 0.27708
-7.81096 0.67270 0.25356
-7.91269 1.13020 0.11303
-3.87343 2.79438 0.13500
3.64830 4.51028 0.01214
5.80373 4.37832 0.67290
-2.06019 3.65135 0.18224
-1.87932 -4.14673 0.13535
5.59267 -4.12512 0.00000
-7.49786 -1.06824 0.21012
-4.81096 3.44584 0.13971
0.14813 -2.54848 0.01500
3.62864 -2.52463 0.38556
-1.05445 -2.75254 0.29087
-2.56532 -1.17773 0.12000
-0.17814 2.51635 0.05397
2.95520 3.76035 0.11042
6.57879 -2.86198 0.01500
4.06459 -2.81378 0.07201
6.28553 -3.62365 0.34163
6.28195 -2.56205 0.02141
-0.88274 -4.78331 0.52428
2.30397 -4.83865 0.32638
-3.69788 4.27789 -0.00000
-0.13290 -3.85141 0.69866
5.94944 -4.49028 0.27430
5.59784 -4.48491 0.02984
0.92811 2.45135 0.17204
-1.82030 0.68635 0.07935
7.48483 3.69635 0.09753
-1.90560 -1.07062 0.15000
-5.06944 -0.93183 0.25500
-5.38088 0.65767 0.27000
2.44193 -3.87316 -0.00000
-2.75293 1.17748 0.13500
1.98652 4.30837 -0.01500
4.69969 -3.80949 0.01821
2.64636 -4.80554 0.00000
-5.31096 1.13771 0.33682
-0.11430 4.88135 0.05687
-7.21096 0.83056 0.10398
5.94303 -2.55852 0.11550
-0.15462 -4.82178 0.58195
-4.72596 -1.90495 0.27000
-2.83782 0.02135 0.46528
-0.06587 3.98764 0.50336
-1.65378 2.73975 0.53999
-7.66526 1.24385 0.05450
-4.35874 4.27969 -0.00000
3.81786 -3.81175 0.10631
-1.54423 -4.82365 0.34406
6.21635 -3.14500 0.16173
4.21750 -2.37365 0.72383
4.72262 2.59635 0.02165
-2.92002 -0.47973 0.15000
3.29526 -4.18122 0.14195
3.31353 4.23573 0.04599
7.60071 3.68598 0.10000
3.55904 -3.06418 0.02143
-1.39349 -4.18633 0.26837
2.56446 -3.90783 0.15859
-2.04877 3.10427 0.54230
8.34915 3.71135 0.59579
-1.17589 -3.49770 0.30788
-5.11096 -2.10570 0.64555
6.37032 -3.05102 0.02465
2.38904 -2.78682 0.32813
-5.04473 1.38783 0.28500
5.29477 -4.67345 0.24900
5.80282 2.52697 0.04616
1.03077 -3.48849 0.03000
3.60747 -2.35865 0.89084
3.95833 -4.73140 0.16180
6.03741 3.71135 0.18655
3.20343 4.89635 0.01792
-1.77016 -2.82148 0.44525
5.44955 -4.79905 0.16196
6.96597 3.38188 -0.01500
2.09801 -2.74556 0.01500
1.94357 -2.42983 0.11500
5.84686 -4.13579 0.05762
1.77246 3.26755 -0.00000
4.53682 4.89635 0.17360
-1.90302 2.45135 0.62020
-1.19752 4.88135 0.45696
-2.34406 2.87082 0.62142
0.06996 -2.40865 0.22637
6.91819 2.91524 0.08706
-7.28429 0.82885 0.19712
4.06902 -2.47785 0.24580
-7.69015 0.52885 -0.00219
-3.14815 -1.11920 0.28500
5.41830 3.74635 0.56161
-2.30057 -4.12409 0.00695
7.80949 3.23735 0.10855
0.54202 2.46635 0.03417
6.36723 2.48135 0.28368
1.42159 3.56666 -0.01500
5.18509 -4.85365 0.11402
6.24769 -3.63865 0.45812
-0.50672 3.81578 0.48814
-1.12382 -2.40865 0.92923
4.56374 -3.79992 0.08002
1.18904 -4.60307 0.25522
0.14614 3.45103 0.10000
8.38904 2.65849 0.40286
7.53702 -3.22792 0.01500
-2.42331 -0.52865 0.04976
-0.83066 -3.06275 0.20904
6.00404 -4.67849 0.30806
0.78486 3.50232 0.10000
3.03731 -4.46088 0.14976
5.34340 3.09635 0.29322
7.06720 3.69635 0.04428
-1.87538 4.59599 0.03174
-3.18329 3.66635 0.15853
4.81277 -2.47825 0.02868
5.46364 3.59299 0.09965
0.28555 -3.60865 0.34355
-1.44982 -2.73626 0.37495
5.62247 -4.22099 0.16552
7.64526 2.82041 0.08792
-1.29960 4.00104 0.26016
-3.33607 -0.49772 0.25500
-3.74866 3.19248 0.13500
2.07610 -4.58605 0.00000
-4.28291 2.56604 0.23234
-3.96470 0.79963 0.13500
-5.81096 1.18758 0.14256
6.86015 2.87135 0.06746
-7.33001 -0.76824 0.18418
8.33903 2.56191 0.04068
-0.61204 4.13768 0.47829
2.61550 -4.31175 0.16500
-3.91554 0.83161 0.28500
-5.12596 1.28574 0.52883
-4.83814 0.68635 0.16523
2.15052 -3.39263 0.13000
1.93646 -2.39365 0.60469
6.97102 -2.93197 0.01500
-2.01911 2.57556 0.49696
-7.61096 -0.71674 0.08957
-5.88223 -0.50971 -0.01500
8.38904 -2.57475 0.55119
-0.85759 -3.58849 0.21626
8.40404 2.64796 0.57366
2.38904 2.94610 0.02701
6.41647 -2.89057 0.02141
5.25738 -3.46555 0.14662
4.03026 4.42935 0.09896
1.28998 -3.62365 0.48002
-6.08225 0.42885 0.01932
1.29977 -2.67297 0.03000
-0.97478 2.92839 0.25452
-4.78567 -3.53427 0.12000
-4.48654 -4.75726 0.01500
-2.32785 3.84701 -0.01536
-4.25878 1.25135 0.12302
-2.69813 1.23635 0.40856
3.80075 3.01648 0.54523
1.18904 4.69346 0.03940
-5.91096 0.86766 0.17470
-7.95129 0.62497 0.10269
0.89430 -2.65588 0.01500
-4.70531 1.92834 0.27000
-3.29596 4.54359 0.19692
-3.88084 -0.03430 0.27000
5.81539 3.85662 0.61288
2.60927 -4.33006 0.09612
1.32143 4.48087 -0.01500
-6.24181 1.22885 0.42547
3.64161 -4.79905 0.03068
3.57404 -2.63040 0.21606
-0.88020 4.00461 0.50996
-2.33842 3.57310 0.69252
-4.81096 -4.09785 0.06660
5.93903 -3.68004 0.48207
2.74943 -4.83865 0.50503
-0.41821 -3.83365 0.47998
-3.88968 -0.45503 0.28500
-6.71097 0.06043 0.01986
-2.63874 -3.69500 0.06689
-5.41096 -0.88612 0.25033
-2.22998 -0.97240 0.12000
-5.84364 -0.86824 0.15247
1.81095 4.19699 0.06794
-3.64917 0.75740 0.12000
-3.15540 1.23635 0.34220
5.35971 3.09179 0.14303
4.67502 3.59056 0.21795
-5.06657 0.67535 0.25500
-5.71950 -0.36824 0.05949
-0.13699 2.63281 0.00817
-2.70022 -1.17865 0.03134
3.58904 -4.47674 0.03768
-1.29741 -3.05106 0.31858
-0.33364 -4.19947 0.56788
1.57485 -2.85082 0.03000
3.59717 -2.37365 0.23520
3.08417 -3.89406 0.15859
-3.00695 -4.80865 0.61095
4.76370 4.18514 0.29265
3.45697 -4.48491 0.10056
-5.52558 -0.66824 0.11654
5.52366 2.49635 0.19862
4.96236 -4.83865 0.13329
-3.11311 4.25331 -0.00000
7.80913 3.37149 0.02084
-4.02944 -1.82742 0.28500
-6.55600 0.28725 0.03500
-3.21730 -0.45965 0.25500
-3.62774 0.04299 0.25500
-3.39541 -0.70674 0.13500
-1.00613 -2.77264 0.13700
4.21067 2.60099 0.43539
1.55541 2.45135 0.08765
5.36620 4.24998 0.48596
-5.55457 0.62885 0.14293
7.19838 2.49635 0.09922
-0.77433 4.05189 0.53833
4.17797 -2.80535 0.18211
-4.06051 4.50681 0.10000
4.98059 4.27731 0.46176
-4.58776 1.56201 0.25500
3.57404 -3.56262 0.16766
0.94279 3.54384 -0.01500
6.62504 2.98071 0.07071
-2.01997 -3.89552 0.13156
-6.11096 -0.27949 0.06945
-5.14478 1.23093 0.40500
-4.11096 -0.00334 0.55749
-2.34842 -3.20728 0.67018
2.38904 -2.82348 0.22058
-1.51840 -4.77838 0.21653
5.87874 3.13156 0.16755
-1.92614 2.51635 0.51965
2.38904 3.63380 0.46629
-0.78565 2.46635 0.80013
-0.54331 4.08030 0.49670
-0.88609 2.45135 0.73129
5.93759 -4.79264 0.07600
-7.33313 1.16225 -0.01500
-0.62287 2.79968 0.16023
5.94943 -4.06836 0.09790
-4.83808 0.19178 0.25500
1.18904 4.00115 0.49324
6.00404 -4.30758 0.61346
4.62876 -3.75602 0.23375
4.28257 -2.65810 0.27282
6.73880 2.48135 0.26408
5.54279 4.69250 0.50140
-2.87071 -4.35253 0.00000
1.17404 -4.49426 0.01911
3.58904 -3.05682 0.29663
-3.58506 0.46472 0.27000
7.53118 3.05343 -0.01500
-5.34407 0.13635 0.32320
-4.28889 -2.45718 0.13500
-2.33827 -0.36759 0.15000
-0.43079 -3.54486 0.10190
7.44613 -3.42660 0.01500
-2.27143 -3.23721 0.95750
2.29812 4.29635 0.09326
5.54313 4.24221 0.59788
-4.43557 2.75568 0.15000
-5.70475 -0.56824 0.07884
4.31199 2.66015 0.55049
-0.13613 3.47074 -0.00759
0.20925 -3.52986 0.09132
-1.04338 3.38210 0.23551
-4.43534 0.22552 0.42000
5.59971 -2.47825 0.14731
3.48386 4.89635 0.58111
-4.74031 1.06292 0.25500
-0.14259 2.59904 0.03153
3.75340 3.66693 0.90589
7.61181 3.32428 -0.01500
-4.74958 -2.53398 0.13500
-4.67395 -0.52115 0.25500
5.93413 3.97777 0.34865
-2.25381 4.32144 0.02285
7.40045 3.30147 0.06778
-4.91191 -1.83836 0.27000
-2.95348 -0.97726 0.18098
1.72416 2.51635 0.02991
6.59642 -2.73036 0.15859
4.21741 2.80174 0.44911
4.76575 4.15496 0.40480
4.77606 -3.12577 0.22580
-6.87582 -0.56037 0.08500
6.00705 2.59075 -0.01500
5.33302 3.69635 0.26533
-0.90716 3.32893 0.33993
-2.69233 1.25135 0.54055
-3.12425 0.26481 0.25500
3.55904 -2.73899 0.99321
-1.29357 -3.56823 0.31755
2.34023 3.61635 0.50539
-1.76637 4.86635 0.32738
-2.23987 -1.19365 0.45140
7.43560 -2.40865 0.26293
-3.27400 0.90204 0.12000
-6.01096 0.77532 0.10102
4.85011 4.78124 0.31580
7.59077 -2.60848 -0.00000
-0.33468 4.49870 0.51871
-5.39085 1.15113 0.27000
-7.66913 -0.66824 0.12237
-1.45598 -3.09814 0.41399
-1.76066 -3.57721 0.48010
3.12844 3.86035 0.05536
1.71510 4.89635 0.18233
-4.55922 -1.33672 0.13500
-5.03251 -0.85248 0.27000
4.44972 -3.79252 0.14106
-5.61096 0.87179 0.14640
4.05439 -3.12469 -0.00000
4.47202 4.91135 0.48432
1.89570 4.71925 0.03301
-0.33288 -4.80865 0.57826
-6.35428 0.56586 0.08500
-1.23680 4.86635 0.47411
6.15040 3.71135 0.08205
-5.91096 -0.59954 0.03809
-0.55070 4.33194 0.47919
-3.15125 4.88135 0.21818
-5.41096 0.74608 0.12977
-4.24994 1.96481 0.27000
-7.71096 0.15997 0.03135
-4.84889 1.42978 0.27000
-0.58557 -4.46804 0.48201
5.89104 -4.91865 1.02570
8.19523 -2.42365 0.40986
-4.04224 1.10212 0.28500
-5.51096 -0.87464 0.23092
-4.77653 4.80755 -0.00000
-4.69891 3.97320 -0.00000
6.63904 2.89519 0.08944
-4.22759 0.55355 0.27000
5.43384 3.05863 0.00718
-2.01959 2.46635 0.47962
-1.17669 4.46267 0.31146
-7.02860 0.42885 0.15135
-5.77895 0.72885 0.12067
6.70801 -3.62365 0.60531
-2.58309 4.88135 0.41674
-0.05087 -4.32908 0.36752
-1.94773 -0.73636 0.13500
3.47292 -4.46761 0.00000
5.84101 4.79635 0.39793
4.64080 -2.35865 0.03086
7.47649 -2.96136 0.01500
-2.63204 1.23635 0.40598
-0.13000 4.81635 0.60781
-7.05825 -0.56824 0.05123
-0.56354 -4.58827 0.49075
1.18904 4.47421 0.46743
-1.91369 2.46635 0.26533
-5.08291 -1.38716 0.25500
-1.75621 3.74659 0.17171
-0.32502 3.68135 0.53631
-5.06595 0.46172 0.12000
-2.89653 -4.48732 0.01500
2.28222 -4.85365 0.02224
-5.15236 -0.29060 0.40500
-3.46855 0.02135 0.35744
4.80428 2.66739 0.29819
3.17061 -3.63865 0.04653
4.52894 4.33970 0.36514
3.85682 2.48842 -0.01500
5.46428 4.37007 0.49874
-7.41096 0.86162 0.26200
-4.18986 -0.99076 0.25500
-4.49960 0.00123 0.40500
4.29193 -3.43670 0.26089
-2.14221 0.93579 0.13500
5.78854 4.25887 1.20679
-4.41800 1.56961 0.27000
1.85635 4.66193 0.04722
-6.55498 -0.09220 0.03500
-2.00832 2.78871 0.51593
-4.42036 1.73159 0.13500
1.34940 -4.15059 0.00000
3.86057 -2.35865 0.32225
-7.08763 -0.55594 0.16500
-7.85940 0.55841 0.12409
-0.76513 -3.65264 0.43674
-2.23339 1.23989 -0.00000
5.82622 4.16517 1.02941
-4.68442 1.31158 0.30000
4.67999 -3.50290 -0.00000
-2.67137 4.64643 -0.00000
5.03381 2.49635 0.64881
-6.06023 0.69457 0.16500
-1.68277 4.33795 0.19139
-5.57027 0.62885 0.12627
4.67626 -2.37365 0.17146
-1.88271 -0.61051 0.13500
-4.16130 2.52174 0.18000
4.84475 -2.40865 0.33238
-0.16587 -3.73032 0.32584
4.15716 4.80408 0.28475
-7.71096 1.07409 0.06680
2.34941 -3.88451 0.15859
2.12772 4.47508 -0.01500
4.46783 2.72712 0.38201
4.94071 -4.91865 0.92218
-4.86951 0.09275 0.40500
-4.07085 -3.65865 0.11021
6.28923 -2.85529 0.06195
-3.02763 -4.03857 0.00000
4.41599 -4.14513 0.13191
-2.21475 3.02384 1.15404
4.09469 3.41449 0.59788
4.12013 -2.37365 1.21160
0.97781 -2.77950 0.03000
-2.59640 0.68083 0.12000
-1.67706 -3.69750 0.20792
-2.53499 0.91921 0.13500
3.27603 -4.16642 0.03407
3.57404 -2.65973 0.28535
-4.33904 -1.23956 0.31554
-1.76393 3.22050 0.46597
6.30505 -2.79239 0.11129
-5.69891 -1.18615 0.06833
-4.82596 3.41595 0.24762
-3.59596 2.63045 0.25441
4.17324 3.74635 0.20147
-1.70182 4.77532 0.16791
-3.75319 2.49146 0.15000
-3.10860 4.08618 -0.00000
-2.28716 2.84831 0.69062
8.38333 3.69635 0.38078
6.34278 -3.63865 0.18000
1.26288 3.69635 0.04762
-1.11029 -4.80865 0.83181
-5.71096 -0.70926 0.16099
4.26197 3.93276 0.14268
-4.22017 -4.40716 0.01500
-4.67127 -2.28405 0.28500
-5.71096 -0.55049 0.02886
-5.32910 0.58635 0.02546
-5.12596 -1.61076 0.52808
5.76447 3.68135 1.11301
1.37812 -2.52929 0.01500
-0.00054 -2.80583 -0.00000
-5.91096 0.65906 0.11762
-7.43027 -0.86824 0.23488
4.27615 -3.39847 0.27680
-5.41096 1.01374 0.06541
-1.97035 2.45135 0.59423
-2.96497 -4.20088 0.03000
5.50672 2.85383 0.17748
1.65123 4.91135 0.47178
8.16755 3.53211 0.04510
-1.01405 -2.39365 0.52846
-3.59596 3.04108 0.49074
6.42004 -2.40865 0.52975
5.98904 -4.02015 0.14034
0.45536 2.61101 -0.01500
-0.72820 4.22709 0.57203
-1.87271 3.63635 0.14735
-4.81096 3.16211 0.27962
-2.06020 1.23635 0.12454
-4.94578 1.44426 0.13500
-7.71613 1.20575 1.28122
4.20557 4.01655 0.14310
-7.61096 0.91408 0.09660
5.63639 -4.51968 0.43426
-3.76745 -4.65349 0.01500
-1.49342 3.33030 0.39349
4.83796 4.87491 0.29701
-2.32130 -3.85734 0.05082
5.65991 -3.81816 0.12842
-2.62153 -0.23570 0.12000
-1.11061 -2.39365 0.22682
4.32834 2.83056 0.41939
5.03565 -2.40865 0.06840
3.71572 -2.79747 0.04403
4.55024 -3.64359 -0.00000
-7.71096 -0.26610 0.05668
2.21112 2.75971 -0.00000
3.99349 4.73235 0.16825
4.52414 -2.47351 0.10796
-0.19460 2.55665 0.02994
-3.62889 4.24573 0.20000
5.85922 3.30009 0.03105
5.00792 2.90593 0.11824
1.18904 -3.76663 0.02327
-1.92140 4.86635 0.39449
-5.61096 0.62423 0.05997
-0.50577 -3.55309 0.14385
-0.48695 4.76072 0.49627
-4.81096 2.56471 0.18760
-7.31096 0.28885 0.02359
2.29038 -3.18957 0.01500
-5.41096 -0.05897 0.38410
8.20175 -2.40865 0.04618
-0.84312 -4.82365 0.97670
-3.81501 0.03635 0.42396
4.86881 4.05897 0.40652
-3.56285 -3.74156 0.01500
2.00471 4.90519 0.60000
4.77338 -4.66081 0.00000
4.65334 4.84635 0.37416
1.17404 4.00378 0.40193
-4.81096 3.72475 0.10357
-7.18736 -1.17115 0.31884
7.79390 2.54635 0.07413
-0.33838 -2.67317 0.09900
-7.74108 1.15828 0.68025
2.64343 4.89635 0.14907
-3.66406 1.00093 0.25500
-8.35791 1.13783 0.00927
-3.30610 0.44988 0.27000
-7.21096 0.26343 0.07807
4.51381 3.03231 0.47973
0.45849 2.74729 -0.00000
-3.05197 -0.52865 0.23295
-3.35126 0.78284 0.28500
4.63517 -4.37626 0.23303
1.37511 4.46627 0.02202
-4.83915 0.19560 0.42000
-4.01827 0.91130 0.27000
0.11172 3.25586 0.10000
-2.01806 -3.14810 0.51168
3.94278 -4.57424 0.10696
3.88878 -4.12589 0.02818
-3.43085 3.66635 0.12039
-3.33386 0.03635 0.55347
-0.56279 -4.80865 0.69174
-2.44542 0.02135 0.32316
-1.98340 -2.40865 0.74764
2.07628 2.45135 0.02055
-1.75391 -4.43516 0.20285
-3.59596 -2.41895 0.07297
3.77150 4.67199 0.06209
-2.91097 -0.56206 0.05160
-0.07830 4.88135 0.26661
-7.53062 1.22885 0.31366
0.53694 -3.60865 0.22882
5.12794 -4.49105 0.00000
4.77507 4.28350 0.29853
-6.21096 0.06335 0.00900
-0.72145 -4.40782 0.47950
-2.08371 -1.19365 0.04756
-1.29115 3.71943 0.43833
-1.10998 -4.78864 0.03848
4.96214 -4.29831 0.20365
-1.31741 4.41740 0.27091
-3.16056 3.66635 0.25236
-5.11096 1.98762 0.54484
-5.56694 -0.95368 1.42143
3.36251 -3.81175 0.08263
1.77797 3.13238 -0.01500
-4.20247 -0.38983 0.27000
5.46516 4.26873 0.48344
-1.77687 -4.04509 0.16564
0.26084 3.29816 -0.00000
-3.46807 4.82160 0.10000
5.48543 3.75505 0.50440
8.38904 3.00279 0.50431
5.46576 4.89635 0.37834
-4.95567 0.44831 0.39000
5.80649 -3.24048 -0.00000
-2.85907 -3.75354 0.01500
4.21804 4.91135 0.32825
1.54332 2.80868 -0.00000
-2.18373 2.46635 0.65661
5.78632 4.20395 0.56666
-5.92338 0.11945 -0.01500
5.23262 3.64635 0.21067
2.05406 2.45135 0.27653
-2.56539 4.76638 -0.00000
1.33539 3.69635 0.01524
-3.66096 -0.53792 0.22934
7.12101 -2.80993 0.02141
-0.98614 -4.80865 0.76171
-2.35799 -3.10974 0.64015
-6.17404 1.02885 0.12008
-0.39899 -3.87350 0.56590
-2.28512 -1.16972 0.13500
-1.53641 2.58810 0.38948
3.26037 -3.63865 0.12588
-2.30359 0.20971 0.12000
-4.16936 3.67035 -0.00000
-3.93275 -0.24779 0.28500
-2.13470 -4.52125 0.06692
-0.25160 3.78562 0.67839
2.49518 4.37605 0.04293
5.85886 4.40460 0.90759
-0.09016 -4.75971 0.61475
4.78695 3.91549 0.31725
-2.92926 -1.19365 0.07297
-5.48971 -1.18615 1.17547
2.38904 2.96463 0.00084
-4.82596 -4.45141 0.05974
-4.40678 -1.35843 0.27000
-3.02246 4.60263 -0.00000
-0.10416 2.54053 -0.01615
3.79204 4.18748 0.01676
-4.21378 -3.59365 0.09082
-4.66295 1.09846 0.42000
-6.42993 -0.97115 -0.00268
8.01808 3.45270 0.01275
-4.70651 3.14905 0.13500
1.83934 -3.20398 0.06097
-5.12596 1.38436 0.47230
4.85197 4.91135 0.38169
5.94943 -4.25094 0.25194
-4.92073 1.16169 0.39000
-0.93200 -3.24887 0.25806
4.69646 2.51436 0.32708
2.86427 3.68135 0.07773
-7.21096 1.17824 0.07634
5.27620 -3.18950 -0.00000
-2.53291 0.59389 0.12000
5.59065 -4.46568 0.26211
-2.03598 0.84994 0.12000
0.91219 -3.54467 0.01500
7.13319 3.15329 0.07931
-2.33951 3.80140 0.03232
-0.39755 -4.34018 0.51686
-2.14471 -2.40865 0.53390
-5.98056 0.72885 0.01562
4.49662 3.58210 0.41291
8.40404 -2.42685 0.54974
-1.68825 -3.82903 0.18939
2.38904 -2.47828 0.58448
-4.76096 -2.55474 0.15588
0.41374 -3.60203 0.01500
-7.95878 -0.76082 0.11621
-1.46393 4.20943 0.21612
-0.05087 4.17220 0.54673
-0.25378 -3.07723 0.06080
-1.63050 -4.09960 0.20486
-6.01096 -0.21921 0.08057
5.60800 4.31135 0.65372
1.65196 -3.85350 0.01500
-4.81096 -4.05229 0.14400
3.55904 -2.60328 0.81944
-5.81096 1.08865 0.17528
1.17404 -3.69220 0.29572
8.11010 2.48135 0.10722
-2.94127 0.41753 0.12000
3.96842 -2.84723 0.09830
2.10386 4.69580 0.05483
-1.02543 4.86626 0.47105
6.00345 -2.42365 0.57517
-7.56403 -0.96824 0.11336
-5.68300 1.12885 0.28343
-3.60451 4.86635 0.56873
-0.72540 3.01119 0.30060
-2.50691 -3.92215 0.03000
-7.22641 1.22885 0.15000
-3.98244 -1.17865 0.32017
7.09129 -2.93411 -0.00000
8.40404 -2.55705 0.20543
-4.82596 2.80767 0.10257
-0.29577 3.61635 0.07980
-4.65391 -4.80011 0.01500
-1.30834 2.69875 0.32203
-0.51819 3.45761 0.13218
1.17404 -3.95436 0.53790
-4.21675 -2.75792 0.13500
-3.71814 -0.67561 0.28500
5.26914 3.95892 0.59788
-4.18691 1.22865 0.40757
-5.39991 0.54772 0.40500
0.42250 2.53945 -0.01500
-0.55595 4.53751 0.47495
-0.48057 -3.57398 0.11524
5.27920 2.59930 0.20008
3.60945 -2.42365 0.05964
6.00404 -3.97031 0.71314
-4.31352 0.07837 0.40500
-5.51171 -0.96824 0.14345
-3.88793 -0.38265 0.27000
-4.01672 0.03635 0.66399
-4.29229 0.35235 0.40500
6.75517 -2.40865 0.20603
8.40404 3.36617 0.28023
5.28910 -3.80514 0.02138
-5.91096 0.43576 0.02855
4.08596 3.21579 0.48433
5.13770 -2.78898 0.15859
-6.32904 1.24385 0.54290
-0.14387 4.38846 0.97574
-0.93861 3.83335 0.39078
-5.87371 -0.96824 0.00991
-7.88109 -1.11557 0.13703
2.55640 -4.67054 0.00000
5.87993 -4.79264 0.31663
6.65404 2.72332 0.13596
-1.35778 -2.51814 0.35028
-1.50510 4.54346 0.23899
5.38723 -4.18842 0.43750
5.44429 4.14868 0.59788
-3.47301 -0.10111 0.25500
1.31822 -3.56771 0.01500
8.38904 3.21120 0.10873
-7.79911 -0.10601 -0.01500
-3.71042 -0.95715 0.12000
2.38904 -3.45938 0.37905
-4.81096 -2.91926 0.56282
-0.29078 -2.84668 0.04885
6.13220 -2.50097 -0.00000
-5.49114 0.82885 -0.01372
5.52345 4.91135 0.65042
-2.17912 -3.03021 0.60775
-0.62114 3.66635 0.51803
5.16335 4.71627 0.33159
-2.27898 -0.34998 0.13500
3.70364 3.71750 -0.00693
-2.24885 3.59408 1.08473
-2.46287 4.88135 0.29860
-1.86097 2.92408 0.47644
7.83169 -3.59047 0.01500
2.37612 2.45135 0.05727
1.73540 3.75529 -0.00000
6.30000 -3.02651 0.01500
5.71032 3.93950 0.54629
6.34008 3.64635 0.03891
-3.61096 -3.53059 0.30329
-3.07331 -3.60865 0.61371
-2.56291 -1.14203 0.15000
3.91315 -4.83865 0.49293
-4.42362 0.37852 0.42000
1.96465 2.81245 -0.01500
7.17503 3.44744 0.03693
4.86076 3.03086 0.28306
6.14479 -2.65139 0.02141
5.12585 -4.90365 1.19551
6.97852 2.87135 0.03815
-2.47084 4.00897 -0.00000
-0.96044 -4.03731 0.41546
6.01904 -4.35428 0.34184
4.78227 4.29635 0.36914
-1.21755 -4.80865 0.21379
8.33903 -2.70567 0.08012
3.99508 -4.13230 0.11254
3.82254 2.49635 0.44026
-0.93002 4.81635 0.48802
-4.76096 3.94538 0.09397
-7.54188 -1.18615 0.53980
5.18370 3.10098 0.19019
2.31008 -4.85365 0.12924
-0.84727 2.46635 0.29840
5.87290 -4.85365 0.60309
5.50393 -3.87261 -0.00000
-3.59567 -0.09010 0.25500
7.57370 2.61112 0.01632
-3.01957 3.78976 -0.00000
4.76277 4.14627 0.27687
3.23676 4.77493 -0.00000
-2.89001 0.58167 0.13500
-3.23894 -3.60865 0.44124
-4.45653 -2.56193 0.15000
4.97579 4.48430 0.44597
3.38974 -4.04461 0.01500
-1.36455 -4.52459 0.31478
-0.46812 -3.65865 0.57701
-2.00982 2.66664 0.49447
-3.91096 1.69815 0.63019
-7.66071 0.82885 0.11887
-6.95143 1.02885 -0.00526
-3.68327 -0.42821 0.27000
-3.75281 -1.17865 0.48514
-2.14147 2.45135 0.69176
-2.25663 -1.19365 0.01489
-4.26097 -2.42814 0.01030
-3.64484 0.61453 0.28500
6.12107 -2.47825 0.09560
-1.21045 2.73725 0.29581
2.28988 -2.79176 -0.00000
-4.81096 -4.78649 0.52713
-0.36726 -4.08996 0.55888
3.62762 -2.53487 0.39580
7.43896 3.09635 0.13489
-1.45849 2.91982 0.38413
-4.97761 0.85056 0.27000
4.67627 4.11637 0.27206
5.30613 -3.15141 0.03929
4.18978 -4.12589 0.10448
-3.95770 -1.53374 0.13500
5.80348 3.72635 0.47046
-5.96158 -0.17115 0.00007
-0.44219 -3.62365 0.48616
4.01016 -4.85365 0.40378
-3.91096 -1.54688 0.20811
-6.01096 1.14789 0.09629
-0.51184 3.50463 0.01674
3.94277 -2.83824 0.06821
-4.53007 2.39989 0.27000
1.58034 -2.40865 0.26990
-4.21097 0.61894 0.04387
-3.53639 -4.82365 0.26986
-1.61341 3.03061 0.42564
3.65061 -2.37365 0.76740
6.54942 -2.53073 0.01500
5.44001 3.28085 0.12785
5.27220 3.71135 0.01209
-7.01096 0.86137 -0.00696
1.18904 -3.78685 0.29923
2.38904 -3.31559 0.59520
5.30192 -4.19278 0.16927
3.57000 -2.37365 0.87613
-0.44098 3.91330 0.62765
4.56051 -3.53178 0.28750
-2.73909 0.22015 0.13500
-0.73189 4.88135 0.80268
4.56829 4.50979 0.12123
5.90925 3.71135 0.11360
5.85057 4.28188 0.93853
4.85760 2.75563 0.37249
-4.79966 0.04075 0.13500
5.61606 -3.99313 0.02372
6.03904 2.72310 0.03856
5.43343 3.39640 0.15981
-2.16990 -3.59365 0.56353
8.36861 -3.62365 0.43200
-1.55089 -2.68076 0.33039
-5.27395 0.30906 0.40500
6.54157 3.32240 0.12021
5.91776 3.64635 0.02064
-5.91666 1.24385 0.30538
-6.41541 -0.02542 -0.01500
4.33913 -4.47250 0.00000
3.57404 -3.36141 0.44108
5.56001 2.95481 0.22177
-1.59311 3.03762 0.42020
-4.79257 4.86635 0.35457
5.04277 3.71135 0.19720
3.00706 4.84635 0.09139
-4.14254 1.22820 0.12000
-0.10037 -4.65865 0.82840
-5.75783 -0.96235 0.34500
-0.26097 4.66725 0.53846
-0.41011 -3.33411 0.08083
-3.92795 3.71635 0.00111
1.56336 -3.35713 -0.00000
-2.87928 3.69807 -0.01500
-2.73969 -4.21603 0.01500
5.94901 -3.94590 0.01500
3.58904 -4.06286 0.11252
-6.56383 -1.18615 0.47645
-3.72222 -4.80865 0.16102
4.66183 4.18817 0.32818
3.68673 4.89635 0.25966
-2.98142 -3.96676 0.03000
-0.63008 3.16366 0.14030
5.92364 -2.40865 0.40791
1.18904 -4.02563 0.02005
2.06268 -4.83865 0.07430
4.57751 2.58386 0.33709
5.28269 -4.44217 0.25113
6.01029 2.49635 0.17773
4.36145 2.49635 0.27043
-4.04994 -2.30339 0.25500
-0.93518 4.35927 0.37617
3.41267 4.71569 0.03397
-0.67947 -2.90783 0.20592
4.92763 -4.41754 0.00000
-4.42399 -3.54496 0.15000
-4.80643 0.13743 0.13500
-4.81096 -3.10635 0.05880
-7.45233 0.42885 0.01012
-4.80668 0.69463 0.40500
-4.62403 -1.17484 0.25500
-1.68932 2.81564 0.60355
4.96214 -2.94527 0.10348
-4.34935 0.71911 0.13500
-1.56795 4.65916 0.18825
-4.89799 -0.28625 0.12000
-0.71118 -2.59463 0.17703
1.38651 -4.42034 0.01500
-1.29480 3.68135 0.13935
2.19171 3.81077 -0.01500
-1.64332 -3.32703 0.44866
-4.19550 -2.39074 0.27000
-1.17378 -4.73943 0.40747
2.22618 2.69347 0.10000
5.29560 -3.63865 0.02217
-0.79846 -3.17895 0.18489
1.85067 -3.95667 0.01500
6.62504 2.81078 0.06594
-4.81096 4.68335 -0.00198
1.89256 2.62317 0.10000
5.18554 3.82091 0.40852
-6.34195 1.21312 -0.01500
-4.77346 -3.60865 0.58732
-3.37713 4.63302 -0.00000
-3.25566 -3.85924 0.01500
4.66882 -3.14500 0.15502
-4.80925 -4.76682 0.00000
0.80400 -3.06406 0.01500
6.20999 3.60505 -0.00000
5.79755 3.71209 -0.01500
-5.54144 -1.18615 0.17277
4.10391 -4.83865 0.01863
-1.53617 -3.15401 0.41995
1.48802 4.50841 -0.01500
2.38904 -3.55177 0.57563
3.66120 -3.13218 0.28896
-3.47865 1.01373 0.12000
-6.13997 -1.18615 0.52768
1.54444 3.70812 0.10000
-3.53323 0.98947 0.27000
2.38904 -2.54148 0.39798
-2.22200 -2.41359 0.94881
-3.76619 0.03635 0.18250
-7.71096 -0.83752 0.31765
-4.82596 4.72728 0.22655
5.86395 3.30751 0.07946
7.27002 -2.79880 0.02583
-3.36266 1.23635 0.53699
-4.64971 0.62692 0.39000
4.61097 -4.46568 0.05203
-0.43785 -2.39365 0.30327
3.67989 4.60371 0.00224
-2.63318 -3.97623 -0.00000
-1.54747 2.83257 0.37058
-4.92693 1.75841 0.27000
-0.86993 -2.73947 0.24143
-7.50493 0.02885 0.02890
3.74568 -2.79239 0.29234
3.90646 2.49635 0.17538
-6.91096 0.86265 0.04355
2.96912 3.69635 0.10584
-0.27003 -2.84917 0.06516
-2.33787 -4.25603 0.03085
3.61671 -2.85956 -0.00000
4.52068 -4.47850 0.09503
1.22901 3.87442 -0.00000
-1.62548 -2.85783 0.42835
-2.64231 0.02135 0.22867
-6.01760 0.21992 -0.01500
0.42395 3.25329 -0.00000
-2.54687 0.41290 0.15000
2.86712 4.89635 0.08900
-4.76096 -4.48551 0.02925
-5.23196 -0.12714 0.27000
3.94278 -4.19444 0.01993
2.97784 4.20697 -0.00000
-2.46884 4.84692 -0.00000
-4.12456 3.25062 0.15000
7.13879 -2.42365 0.59835
4.04851 3.69635 0.58023
5.36284 -4.01546 -0.00000
-1.12870 -2.56461 0.29524
-0.87831 -4.40372 0.54100
5.61606 -3.93888 0.21146
-2.27589 2.70187 0.98381
-1.15328 4.12530 0.43679
5.55042 2.60680 0.11379
-0.76627 4.88135 1.03536
5.61606 -3.65754 0.23917
3.73330 -4.85365 0.51945
0.94935 -2.52914 0.01500
-4.18159 -3.96712 0.01500
-3.38436 -4.29922 0.01500
-7.51096 -0.25814 0.00262
-2.12218 3.73354 0.03975
-3.23197 -0.19901 0.13500
5.89658 -2.40865 0.53044
5.43774 3.22257 0.26046
-4.47256 -4.33660 0.03000
1.32458 -3.11614 0.01500
5.62012 -3.07480 0.12009
-1.62363 -3.10328 0.42785
-1.73608 -4.49913 0.20763
-2.61726 0.30661 0.13500
1.85984 4.45209 0.10460
4.96214 -4.40772 0.12976
5.09523 -3.81175 0.34957
-7.80621 -1.09805 0.67201
8.28693 -2.42365 0.05555
5.41471 4.29654 0.63770
5.33788 3.32275 0.17075
-4.95915 -1.19919 0.30000
3.80826 4.10204 0.09901
-6.15217 -0.77603 -0.01500
-4.94512 1.92949 0.13500
-3.88064 0.03635 0.44652
-4.20208 4.46248 -0.00000
7.49869 -2.57870 0.01500
2.86531 4.16142 0.05841
-4.39779 0.86961 0.42000
5.98863 -4.38137 0.00000
4.16330 -4.51911 0.01500
7.98617 -2.66258 -0.00000
-1.56698 4.68284 0.20688
-5.32154 -0.44451 0.13500
-2.34067 4.18710 0.01510
7.04259 -3.62365 0.12184
-5.12596 -2.16958 0.17195
3.02272 4.10706 -0.00000
-4.83147 -2.01831 0.13500
-0.05087 -4.75543 0.57680
1.64365 -2.73679 0.01500
3.31318 -4.07930 0.01500
7.09688 -3.57365 0.07921
3.75916 3.64635 1.00962
-3.14294 0.22159 0.27000
5.55669 -4.50037 0.28750
4.01187 -3.81490 0.05863
-1.19480 -3.81850 0.35267
4.39812 -3.81816 0.25478
-3.89596 2.06114 0.33140
-7.48280 -0.83550 0.34500
6.34486 -2.72724 0.01500
-0.95045 -4.25281 0.38708
-0.81418 -3.68447 0.43912
-2.79016 -3.59725 0.01500
-5.31456 0.90756 0.39000
3.83290 4.82086 0.04608
6.61353 2.54635 0.07740
-0.89692 2.46635 0.15059
-2.35924 3.04649 0.61479
-3.97439 -2.71913 0.13500
2.29697 4.46906 0.11558
4.35102 -4.85365 0.38545
0.95404 2.70002 0.10441
3.71924 3.93335 0.08195
3.32134 -4.02917 -0.00000
-1.67657 3.80874 0.36998
7.03501 -2.81163 0.01830
0.30560 2.45135 0.39402
-4.11135 -0.25168 0.36794
0.19707 2.81581 0.10000
0.36369 -2.81871 0.03000
2.27393 4.11399 0.02980
-2.06089 -2.83701 0.56054
-5.11096 -2.29312 0.63306
-0.44702 -4.77398 0.51913
-3.63263 -0.49624 0.13500
5.58449 -3.26095 -0.00000
4.39755 -4.03732 -0.00000
-0.49058 -3.15869 0.10239
3.91928 -3.87689 0.15535
-3.95473 -0.97932 0.25500
-0.25238 -4.11909 0.57129
3.72211 3.06226 0.97635
-3.23130 -1.19365 0.66639
3.21708 4.44107 -0.01500
-7.71096 0.24776 0.02420
7.73656 3.17445 0.04035
-3.55014 0.66951 0.13500
3.95760 3.99291 0.16234
3.57404 -2.97907 0.35593
-1.93702 2.46635 0.36095
-7.36440 1.22885 0.17083
-3.52191 1.25135 0.31202
3.89967 3.26219 0.61288
-2.50808 4.40098 -0.01500
5.54494 3.71135 0.01258
1.36230 3.91020 -0.01500
-0.74038 3.61635 0.30093
4.78341 -3.63072 0.15859
4.58686 2.80412 0.43755
8.38904 -3.13923 0.55311
-0.38013 4.88135 0.09496
-3.67690 -2.57825 0.13500
-5.22309 1.11012 0.25500
2.63492 -4.24146 0.01690
-2.36909 2.52396 0.21888
-4.31733 -3.03230 0.15000
7.00147 -3.19141 0.15535
-7.18062 1.22885 0.26435
-4.33366 3.71682 -0.00000
3.57083 -4.45927 0.12243
2.16675 -3.85596 0.01500
5.43361 3.63983 0.00633
0.34479 -3.60865 0.14097
-1.81657 3.03627 0.48008
-3.25793 1.23635 0.48008
-4.65480 4.40495 -0.00000
-1.23088 -3.55865 0.33968
5.28338 -3.95874 -0.00000
1.35155 -4.85365 0.06965
0.61441 -3.34781 0.03000
-1.23471 -3.06880 0.30178
2.46063 -4.40593 0.01500
6.43610 -3.00104 -0.00000
5.09299 -4.47850 0.14559
-4.56935 -2.23071 0.27000
-4.09655 2.08298 0.25500
-4.81258 -1.75864 0.28500
-1.14334 4.42431 0.48509
-0.72258 4.88135 0.55618
-3.84044 4.73427 -0.00000
-0.56291 -2.40865 0.39257
-4.36630 -1.43872 0.13500
4.10331 4.51215 0.11570
2.74173 4.35949 -0.00000
8.08993 2.49635 0.59188
-0.53282 4.43783 0.49951
-4.41832 -0.27447 0.39000
5.15334 4.50841 0.36895
5.16788 2.49635 0.22579
-2.26909 -3.48043 0.07851
-4.68302 4.88135 0.29589
-1.85410 2.52805 0.45274
-1.14505 2.46635 0.10754
4.67730 -3.79252 0.32343
4.39189 2.73417 0.55012
-3.91773 1.06264 0.27000
-7.40137 0.62885 0.09883
-1.42353 4.09672 0.36438
-4.13132 -3.06648 0.12000
4.97935 3.48191 0.19922
-1.16571 2.51635 0.43473
-1.98727 -3.59365 0.43568
4.69157 2.49635 0.15836
-2.16088 3.20606 0.55681
-1.10748 -4.08243 0.36053
5.53723 -4.39715 0.15535
-2.52871 0.74762 0.12000
-4.81096 4.31273 0.38663
-2.88052 3.65135 0.42887
-0.85338 -2.73576 0.19960
-2.85931 4.33534 -0.00000
0.29958 2.51635 0.01013
-7.67481 1.11685 0.54716
-4.60387 0.25394 0.27000
-1.08873 2.46635 0.23866
5.17116 3.97381 0.30246
-1.62373 -2.86203 0.49005
-4.66687 -0.60273 0.42000
-4.77953 -4.25041 0.11500
4.10197 -4.79418 0.01500
-4.69226 1.26710 0.12000
-3.89596 -2.06214 0.60911
5.62732 4.75513 0.48823
1.17404 -4.61687 0.14070
-4.82596 -3.61609 0.53428
-2.43636 4.61635 0.10235
4.06420 4.81270 0.23108
-4.45468 2.00667 0.27000
-5.81096 1.09974 0.19842
-7.62303 1.02885 0.23778
-0.86220 3.42771 0.32788
-4.83775 -0.31525 0.39000
3.26049 -4.83865 0.50570
4.38719 -3.37348 -0.00000
3.63613 -3.30328 0.01500
4.41778 4.29635 0.28286
-3.40425 3.89404 -0.00000
-3.66096 2.65283 0.25119
-3.82627 -1.17865 0.33771
-6.31096 0.19952 0.03488
-6.11096 -0.46184 0.06919
2.00749 2.45135 0.21982
-1.68168 3.66115 0.44393
-4.54581 -0.60214 0.13500
8.18694 2.48135 0.14077
-3.94181 3.91805 -0.00000
-1.92476 -4.46606 0.15707
-8.36510 -0.04153 -0.00819
-4.13322 -4.39859 0.01500
4.83351 -4.12589 0.02033
5.47343 -4.91865 0.72698
-3.59179 3.66635 0.02289
-0.09074 -4.13440 0.79246
-3.14015 -0.61989 0.13500
-5.11096 -1.38211 0.63204
-6.89649 0.68623 0.08500
-1.10258 4.88135 0.86941
0.06819 3.62883 0.20000
5.12404 -4.90365 0.91696
-0.61885 4.88135 1.02737
-3.98219 4.52763 0.10000
3.96843 4.89713 0.06402
7.76762 -2.45420 0.01500
-3.66171 4.40347 -0.01500
1.32180 4.88198 -0.00000
4.11400 3.91223 0.13693
2.32027 3.44911 -0.00000
-0.05087 4.61024 0.41977
-2.26302 2.81900 0.70323
-4.27870 0.23211 0.25500
5.28269 -3.40210 0.04329
-6.13395 -0.15509 0.03500
-4.25747 0.03635 0.08827
2.11156 -4.85365 0.26512
-1.22143 3.61635 0.38011
-5.10010 0.02135 0.41316
5.28563 4.20467 0.59348
-6.04009 -0.56824 0.04260
-4.06330 1.23635 0.46309
-0.61015 4.63694 0.46326
-7.61096 0.53935 0.13734
-3.83625 3.21137 0.13500
7.75668 3.19519 -0.00000
1.24834 -2.53544 0.01500
-3.59596 3.06441 0.15120
1.48827 4.14384 0.12100
-4.57472 -0.40017 0.40500
5.46491 -4.26802 0.01500
2.50752 -4.59522 0.01500
-0.17166 -2.90654 0.06985
-1.91005 0.82775 0.12000
0.71163 -3.47829 -0.00000
1.12400 3.66635 0.50262
7.05389 -2.67497 0.01500
8.12911 3.07763 0.04517
4.72657 -3.45914 0.05647
-4.86550 -0.84339 0.25500
-3.85392 -0.33857 0.12000
-3.59596 -2.69837 0.36267
1.90283 2.66227 0.10000
-0.25932 -4.53596 0.58780
3.57617 -2.37365 0.95092
6.00404 -4.70848 0.98147
-4.82596 3.83978 0.38804
1.82823 4.81174 0.15896
0.22562 -2.91850 0.03000
-4.51969 0.04779 0.40500
-4.76096 0.67259 0.23998
0.08103 2.91760 0.10000
-4.41986 -0.73374 0.13500
-0.10748 4.76635 0.24044
-1.27157 2.56635 0.02493
-1.29399 3.71635 0.35948
0.00528 -2.66155 0.03000
-0.89553 -4.75898 0.52086
6.75668 -3.63865 0.48872
-3.61369 0.49581 0.27000
-0.45139 3.46422 0.11428
1.05503 -2.39365 0.36050
4.94931 -3.16709 0.03004
-0.47839 -4.61374 0.54463
-1.12963 3.36662 0.25862
-5.31803 -0.91578 0.40500
4.25865 -2.43630 -0.00000
-7.36670 0.48676 0.16500
-2.02023 3.92357 0.08259
-1.03876 -3.88247 0.34505
