# .PCD v0.7 - Point Cloud Data file format
VERSION 0.7
FIELDS x y z
SIZE 4 4 4
TYPE F F F
COUNT 1 1 1
WIDTH 1925
HEIGHT 1
VIEWPOINT 0 0 0 1 0 0 0
POINTS 1925
DATA ascii
13.56401 -2.07170 0.15835
14.74444 3.73250 0.18754
5.31018 0.48658 0.15000
6.34082 -3.48977 0.23035
3.95852 -2.88596 0.01500
2.39129 1.73777 0.40500
12.36254 4.12911 0.36763
4.29899 4.90250 0.10742
5.59726 -3.58750 0.68171
11.81818 5.73712 0.08822
7.83826 -2.32250 0.09332
13.28090 -1.68602 0.15548
4.40744 1.74904 0.27000
14.40965 4.25917 -0.00000
11.89716 -2.33750 0.08497
11.70508 -2.80195 0.01500
11.57992 4.71601 0.53994
10.06231 -3.61750 0.02923
4.67053 -2.45766 -0.00000
13.56081 4.69121 0.02469
1.48080 1.72597 0.08500
14.05509 -1.51972 0.15270
0.24849 0.76325 0.00431
1.05904 1.74488 0.03500
15.18016 4.71379 -0.01500
13.16074 -3.03016 0.01500
12.09432 4.94750 -0.00798
1.67765 1.66500 0.15438
4.27011 -3.16129 0.00000
14.39744 4.31570 0.15736
3.79782 -2.88500 0.01500
6.46522 -2.28208 0.35512
10.66822 -2.40250 0.34697
6.21149 -1.21662 0.34132
10.97066 -2.40250 0.52833
11.99173 5.25086 0.21660
3.08608 2.55724 0.41048
2.19640 2.46500 -0.00502
7.62504 5.07974 0.60627
13.22782 4.93250 0.48936
6.27313 -1.17250 0.46778
13.33626 5.54782 0.52889
4.12349 5.49732 0.12859
12.78828 -3.66750 0.62327
13.39424 -2.87358 0.01500
3.73090 -1.19600 0.16500
8.93349 5.37962 0.52426
4.11712 4.88750 0.06220
11.94472 -3.61750 0.41708
10.27422 6.14750 0.22077
7.11764 -1.78311 0.19583
6.23376 -3.54800 0.24848
7.52104 -3.47933 0.57787
8.16318 -1.96601 0.03000
15.54993 4.32663 0.15143
12.39104 -1.56265 0.10010
6.94741 -3.18562 0.42132
13.36159 4.53217 0.06255
12.49385 -3.22312 0.21067
4.01388 1.12412 0.27000
12.00271 6.13250 0.60675
6.19412 3.89744 0.27184
0.34849 1.41685 -0.00785
13.37644 6.08250 0.61745
9.87879 3.70250 0.23646
1.43907 1.42798 -0.01500
10.40931 -2.40250 0.05703
3.19050 2.11875 0.40500
11.31149 -3.60250 0.44639
12.73343 -2.62329 -0.00000
9.38982 4.55839 -0.00000
2.66872 0.94993 0.25500
12.41656 4.21751 0.33763
2.94849 -3.16286 0.25150
5.70813 -3.01246 0.12316
13.05393 5.85565 0.51509
6.53447 4.86815 0.12958
14.75465 3.78431 0.05090
11.75095 -1.55624 0.19378
12.61545 6.14750 0.43436
7.02610 3.75250 0.22766
12.38180 -1.99252 0.16315
2.72247 1.99937 0.40500
12.94225 3.73250 0.05596
12.73753 -1.18750 0.54880
7.10998 5.46261 0.46826
5.42202 -2.19738 0.63464
9.03974 4.76579 -0.00000
2.94353 0.00457 0.27000
6.54334 4.01470 0.31918
8.93349 -3.58806 0.24601
3.64667 0.67325 0.35178
8.03348 4.34970 0.10782
11.31849 -1.24765 1.01281
3.70219 2.60547 0.27000
14.18454 -1.95892 0.15710
12.17579 -2.32740 -0.00000
5.56084 -1.45716 0.61297
2.94068 2.30728 0.39000
12.00560 -2.22940 0.18221
11.03478 5.00697 0.00446
2.94849 -3.44834 0.36765
2.90975 2.17251 0.40500
2.93349 -1.44739 0.16006
6.07781 4.83525 0.63222
3.66401 -2.35372 0.12000
7.19365 3.70250 0.56500
13.67412 3.73250 0.33264
6.56548 3.68750 0.54870
2.73332 0.25956 0.40500
6.16187 -1.53735 0.43640
5.43646 2.26881 0.13500
10.03562 5.73828 -0.00000
1.21457 1.30746 -0.01500
5.86054 -2.26341 0.51714
6.64736 -1.30389 0.30632
9.21276 -3.60250 0.37502
12.47165 4.20408 0.31653
2.63349 3.60754 0.54462
4.34199 6.11750 0.30117
14.32118 4.40116 0.12562
6.67577 -2.05176 0.29870
2.95020 2.46817 0.12000
9.18011 -2.27020 0.03000
0.44849 0.23633 0.20929
2.79951 3.31444 0.27000
4.36878 1.24478 0.25500
6.79120 4.85423 0.20159
3.85048 -3.36971 0.01500
12.23207 6.13821 0.19912
2.94849 5.36369 0.05791
7.57979 -2.77590 1.06638
3.63510 0.36422 0.31500
1.64849 1.99698 0.01125
7.00184 4.25129 0.18080
11.62484 5.39537 0.05479
5.63616 5.73921 0.05498
6.43721 -3.39102 0.30299
0.27639 0.81261 -0.01500
3.81770 2.33250 0.13500
11.24235 -2.38750 0.20699
6.81430 6.11750 0.33446
13.70888 -2.66866 0.15283
10.16349 -1.30361 0.56394
4.58690 5.55812 -0.00000
2.85144 2.62304 0.27000
7.30693 5.96687 0.50550
11.29849 -2.46644 0.09167
4.57624 4.90250 0.22633
11.98940 5.09106 0.16800
4.71593 2.47250 0.18080
13.60380 -3.61750 0.59238
6.77974 -2.98644 0.39477
3.08165 2.31453 0.40500
4.80754 5.68588 -0.01500
13.33941 5.46912 0.54788
11.86344 4.33055 0.46397
0.09546 0.36791 0.26003
0.51217 1.19009 0.03500
13.28658 -1.56375 0.11689
4.66672 1.71284 0.28500
12.10293 4.83228 0.41533
13.41964 4.30773 0.06885
13.14935 -1.24210 0.15210
12.43447 4.83187 0.15720
5.61994 1.27250 0.28655
2.77355 -0.37420 0.27000
4.07998 1.29110 0.13500
3.59849 -2.26040 0.08797
14.53961 3.73250 0.43729
2.91475 2.84337 0.27000
12.39462 -2.13845 0.08804
13.12845 4.06106 0.12502
6.30857 5.34887 0.23515
-0.00035 0.86791 0.05321
10.99526 5.83715 0.08023
4.55606 -3.19578 0.01500
6.71018 3.70250 0.12062
10.60959 -3.60250 0.13772
4.38404 -2.88751 0.03000
8.66560 4.70542 0.20000
7.74150 4.57849 0.10167
3.57517 4.79085 0.12000
4.43731 4.88750 0.07771
13.69358 5.75045 0.34953
15.04684 4.69857 0.03748
11.54489 -3.39624 0.15859
-0.31417 2.41530 0.01815
13.55964 -1.59395 0.01500
15.01446 4.88250 0.01283
7.70858 5.43826 0.29257
4.24930 2.21387 0.27000
13.02126 3.71750 0.56861
12.87868 -3.09362 0.00000
4.50356 6.10250 0.57600
4.79607 2.11295 0.16500
15.03509 3.78442 0.01500
0.90120 2.30144 -0.01500
15.47657 4.19960 0.12625
14.36923 -1.88959 0.09896
12.70572 -3.23594 0.07671
3.68768 -0.05525 0.28500
13.02034 6.09166 0.42871
11.50124 -1.69275 0.01500
3.47922 0.01306 0.28500
6.04760 -1.17250 0.77581
0.68013 0.20496 -0.01500
8.99727 5.28058 -0.00000
3.73432 -0.35389 0.25500
12.48200 -2.12707 0.28426
3.72130 -3.57250 0.41597
4.16349 -1.51373 0.59447
13.04535 -1.90244 0.02044
12.36898 -2.10210 0.01885
11.07306 -2.57560 0.02287
13.42149 -3.22953 0.26949
3.82486 -2.44348 0.01500
12.43545 4.96952 0.39105
2.24849 0.46620 0.22022
2.29849 2.52442 0.35292
7.98477 -1.17250 0.42394
2.64849 -0.65315 0.23093
5.24993 2.00909 0.15000
13.61297 -1.34490 -0.00000
2.07528 0.86791 0.07539
5.80934 -3.34789 0.15028
14.28227 4.18433 -0.00000
2.76230 -0.09745 0.28500
7.36768 -3.50606 0.51841
5.49036 3.70796 0.39279
0.25671 0.06791 0.29607
0.68091 2.48000 0.49901
3.10164 -2.42250 0.11510
6.02064 -1.20992 0.47424
2.64849 -1.05030 0.69638
12.70341 5.07210 0.39917
9.42330 4.37570 -0.00000
8.77813 -1.15750 0.50391
4.39057 0.04250 0.18159
0.16860 2.36500 0.02227
4.19532 1.00643 0.12000
7.34632 5.57440 0.51605
4.65476 -3.07423 0.03000
6.41303 3.75250 0.37827
4.83480 0.76972 0.13500
10.15163 -2.37250 0.20099
5.52630 5.80180 0.01001
12.67405 5.57031 0.33592
3.61701 -1.27196 0.18000
10.55783 -3.60339 0.01500
2.94849 -3.02112 0.10534
11.93109 5.88227 0.31043
6.94136 3.80042 0.19067
11.82636 5.95447 0.09041
8.47571 -1.80662 0.03000
13.79849 -1.99494 0.06100
12.11465 -3.28873 0.00000
5.58672 3.68750 0.44159
7.48405 3.70250 0.62449
1.58340 0.47379 -0.01500
1.94849 2.12513 0.04464
6.40671 -3.04390 0.27929
11.37423 -3.12653 0.00000
11.60302 6.13250 0.55432
5.67196 -2.46300 0.11347
0.99716 0.85290 0.03500
3.57276 6.09062 -0.00000
12.17844 -1.13750 0.44801
9.48448 5.47092 0.05516
3.44971 5.26483 -0.00000
3.82657 0.02229 -0.00000
11.49967 4.66379 0.56145
8.94849 -3.18114 0.53797
4.54759 -3.45008 0.01500
9.11056 4.69386 -0.00000
0.64849 0.25635 0.14431
12.50603 5.83183 0.36813
13.68047 5.28384 0.73357
5.81318 -2.38750 0.10452
8.53156 -1.54874 0.01500
5.94123 3.94432 0.46499
13.94788 3.88892 0.02748
11.52885 4.27393 0.65442
13.58050 -1.18750 0.24692
12.89516 -2.33750 0.05261
7.23768 4.93250 0.06904
5.39036 4.49281 0.58486
10.37514 -3.16119 0.13010
13.97411 -1.41050 0.02141
4.89555 1.61506 0.13500
2.31976 2.36500 0.17584
12.33818 -2.12809 0.15797
5.47432 4.90250 0.83807
5.39525 -2.34250 0.35637
4.84848 1.21001 0.19778
2.94849 -3.24600 0.07007
14.44001 4.69304 -0.00000
5.41871 -3.57390 0.01171
2.77471 2.87911 0.28500
11.42097 4.41373 0.75024
4.35599 5.87439 0.10000
0.08372 2.53000 0.11005
12.14915 -1.56399 0.29071
14.77671 4.94750 0.28248
8.09469 4.90250 0.37232
5.59136 3.70250 0.59130
3.63347 -0.16190 0.28500
13.80814 3.98088 -0.01500
12.43267 4.50444 0.34884
12.53935 5.48378 0.28146
0.25146 2.16657 0.34500
9.93578 4.86901 0.10000
3.64686 1.65786 0.35263
5.83183 6.00086 0.12578
2.04849 2.20071 0.05187
13.62493 5.52221 0.88289
11.42774 4.80405 0.77549
6.21057 -1.17250 0.19611
3.01207 6.01105 -0.00000
7.18116 -1.45968 0.17881
15.51101 4.30575 0.03828
5.88228 5.24688 0.03841
13.32584 5.53250 0.52932
5.77136 -2.40250 0.02460
3.33774 1.91687 0.27000
11.32022 -2.90394 0.16180
3.65366 0.43293 0.27000
5.56052 4.41336 0.56700
8.86184 -1.18606 0.11500
2.78042 -0.92191 0.27000
9.64307 -1.41369 0.01500
14.27743 4.13705 0.10949
5.61820 -2.35920 0.56655
12.00859 -1.88962 0.40410
10.06300 -2.52555 0.01500
3.77270 3.87060 0.13500
2.20607 0.05000 0.97337
12.55707 5.78164 0.34310
2.36494 0.63241 0.13500
3.17667 0.57712 0.25500
15.28447 4.19631 0.10984
11.33349 -1.70711 0.99527
4.12957 -1.35304 0.13500
7.65550 -2.45006 0.62943
12.95155 -3.66750 0.23416
0.75690 0.82694 -0.01500
10.09849 -1.82735 0.02537
16.06672 4.94750 0.46186
4.10304 -1.37250 0.52091
5.20811 -3.57250 0.11481
6.70405 -1.40840 0.26926
13.74849 -2.32554 0.02548
4.42958 2.48750 0.29947
7.76794 4.22260 0.10000
5.98217 5.10912 0.16606
8.64313 3.96473 -0.00000
4.64848 1.31861 0.22951
9.32621 5.03486 0.02852
12.36897 -2.59310 0.14818
6.88030 4.63891 0.33892
2.86535 1.24688 0.25500
4.66469 6.10250 0.23610
1.75580 2.48000 0.36974
5.60371 2.19884 0.13500
1.01255 0.86500 -0.00153
13.47590 5.97416 0.61136
4.82916 0.54731 0.12000
12.38821 -2.16321 0.23061
12.79029 -2.58201 0.06697
0.63577 1.86500 0.03566
5.71843 -2.22821 0.57075
4.64717 2.37234 0.27000
12.03245 5.95967 0.17953
14.38750 3.71750 0.45982
13.53749 4.08336 0.03094
11.54892 4.71181 1.16980
14.43107 4.36562 -0.01500
13.64538 5.66331 0.59619
8.71378 3.75250 0.18011
6.68714 3.73423 0.26513
10.21761 -3.61750 0.35959
10.37378 5.76264 0.00756
12.36998 -1.57393 0.24259
12.77105 4.40447 0.12640
4.58389 5.97476 -0.01500
5.46351 1.77405 0.15000
12.65157 5.28090 0.44320
5.68463 5.41564 0.18986
4.84341 -3.30287 0.01500
3.60314 2.11456 0.31561
14.28004 3.73250 0.39515
12.72799 -2.26971 0.08758
6.32058 -3.26751 0.28727
4.93770 5.39376 -0.01500
15.59877 3.71750 0.53887
13.27596 -1.17250 0.51472
7.22662 4.95213 0.49951
11.93086 4.99930 0.13678
4.15608 0.60750 0.22292
5.69613 -1.35469 0.53933
5.46328 4.02149 0.65700
11.30635 5.17117 0.10000
6.29373 -2.62161 0.23064
11.41795 3.77253 0.73895
3.34340 3.40884 0.27000
-0.03434 0.05000 0.35951
5.29849 0.13931 0.07746
14.05110 -1.97169 0.16180
6.36134 3.75250 0.47031
11.76275 4.07747 0.51281
9.90654 -1.66739 0.03000
5.45703 -2.42250 0.06609
5.53400 2.40717 0.13500
12.71518 -1.64005 0.09061
3.15739 3.45663 0.27000
-0.00329 1.63194 0.08500
11.53657 4.35807 1.12371
5.40358 -1.55048 0.64237
8.48667 -2.35881 0.01500
11.60606 -1.24576 0.20077
7.75995 -2.03455 -0.00000
13.36970 -2.38449 0.16808
3.10278 2.82319 0.28500
14.76248 4.04307 0.04127
14.55395 4.56292 -0.00000
12.29557 -1.17250 0.54848
4.86559 5.53040 0.10000
7.05704 -2.37250 0.28460
7.37196 6.05250 0.60830
2.27713 0.56791 0.18802
13.50051 4.31850 0.07424
11.25641 -3.60250 0.18301
13.02097 -1.18750 0.43947
3.88248 -1.16070 0.13500
5.44739 6.11750 0.05387
6.87346 4.87121 0.33426
6.29651 -3.53472 0.26529
2.75257 0.11438 0.25500
13.05496 -3.11234 0.15098
6.09207 4.54812 0.44010
5.12411 5.55770 -0.00000
7.98086 -2.37250 0.09838
13.04214 -3.21760 0.02879
3.41168 2.10114 0.27000
6.75222 -3.58750 0.74418
12.82937 -2.58201 0.09873
14.11264 -1.17250 0.56422
11.61532 4.93250 0.84021
14.53194 3.73250 0.34281
7.57825 4.85250 0.07211
13.32567 -1.23750 0.02698
4.86108 5.01112 0.10000
11.31849 -1.48662 0.04130
12.71920 -3.10041 0.29071
5.83226 6.11750 0.08534
3.83817 1.27250 0.62279
7.07062 5.14403 0.45771
12.34765 6.14750 0.58087
4.22620 0.46532 0.13500
10.06100 -2.75144 0.01935
1.24849 0.32871 0.00324
3.31837 0.49778 0.25500
11.33349 -1.94607 1.18738
13.75099 -1.58189 0.06589
2.95608 5.29696 0.10000
-0.05151 2.31238 0.24703
5.86445 6.05038 0.13452
3.86349 3.65012 0.28844
-0.06043 1.23169 0.15343
14.19973 -2.20892 -0.00000
13.20104 -2.24223 0.28177
12.28811 -2.24223 0.06487
6.22658 4.93877 0.23155
2.74440 -1.11962 -0.00000
13.17436 -3.68250 0.36993
13.55339 5.73252 0.62948
1.73944 0.27611 0.16500
5.76023 -2.49804 0.10606
3.13574 6.03334 -0.00000
9.42957 5.57236 -0.01500
12.42926 -2.24223 0.27306
3.52917 0.07086 -0.00000
11.50644 -2.00665 -0.00000
14.58432 3.73250 0.29995
3.52052 2.74397 0.12000
3.08763 -2.42250 0.10334
12.61844 4.63625 0.29906
10.91198 4.98758 0.08913
0.34849 2.27488 0.32408
9.43718 -1.52125 0.01500
13.34489 5.73192 0.57379
1.73881 2.06500 0.15989
5.88248 4.88750 0.12557
4.51619 6.10250 0.11547
11.52628 4.74435 1.08531
11.79071 -3.14537 0.01500
13.54665 -2.90898 0.25399
7.38685 6.11750 1.15973
2.24849 0.83416 0.11770
5.89793 5.89926 0.14349
0.06628 0.36791 0.28723
7.69358 -3.57510 0.09787
12.15540 -1.17250 0.60233
13.17306 5.10899 0.48516
8.47718 -1.30547 0.01500
11.46399 -1.13750 1.12600
12.06125 -2.81844 0.17657
3.03362 -0.13787 0.13500
5.08676 6.11750 0.01573
13.15098 -2.10358 0.01500
15.38482 3.71750 0.45019
13.34855 4.24817 0.18765
14.04227 -1.85386 0.08429
6.07017 5.38088 0.15574
3.62560 3.18117 0.27000
3.44849 1.19605 0.00176
11.24848 6.00765 0.02192
0.24849 0.54333 0.24800
5.39036 4.30913 0.45685
9.40967 5.15326 -0.01500
6.17905 -2.35750 0.06218
2.11500 2.42430 0.66441
11.41790 -1.90560 0.07591
14.55076 -2.40250 0.10064
9.45623 4.32966 -0.00000
6.44764 5.74317 0.27241
2.72744 -0.73721 0.25500
3.84849 -0.81072 0.16620
15.17670 -2.33600 -0.00000
15.04804 -1.20566 0.01500
2.24849 2.25708 0.18321
13.26304 -2.12939 -0.00000
3.42329 -2.45234 -0.00000
3.40497 2.32664 0.42000
10.97957 -2.89811 0.12009
5.37536 4.19494 0.29364
8.50394 4.69994 0.10000
7.07614 5.20203 0.61278
3.86349 -0.99812 0.57744
9.08762 5.49040 0.13505
9.69916 4.80793 0.10000
5.97378 -2.92141 0.29787
3.60819 4.32136 0.12000
13.38479 -2.53276 0.01500
12.21552 3.87903 0.51307
3.45145 5.87190 -0.01500
5.40050 5.93187 0.01020
11.88293 4.18916 0.48061
11.49036 4.85839 0.54003
9.88656 -1.76206 0.01500
7.56514 -1.40228 0.02300
4.12396 2.37250 0.19318
7.71961 -1.17250 0.29648
6.73549 4.84077 0.18687
9.85894 5.42663 0.07654
5.90727 2.40455 0.13500
6.10392 4.92128 -0.01500
11.59340 3.81496 0.55186
11.59766 4.04322 0.53519
9.11517 -1.38968 0.13000
3.28163 3.79953 0.16500
11.40082 3.90231 0.67504
6.74047 -1.21741 0.38489
5.04219 4.90250 0.53299
13.58720 5.97780 0.63732
2.74441 -1.10973 0.28500
11.04189 -3.40532 0.13351
11.49420 4.94750 -0.00825
8.22163 -1.15750 0.20528
13.05597 -1.44348 0.15859
12.76239 4.16332 0.22310
4.92218 -3.03138 0.03000
6.81001 -3.35351 0.41841
13.77849 -2.73051 0.72263
1.84849 0.47802 0.13355
12.87740 5.06210 0.42694
13.72492 -2.12505 0.01500
11.44983 3.80832 0.59033
11.89136 -1.78512 0.15535
5.46062 1.70550 0.13500
6.51892 4.90250 0.42036
4.44419 1.13802 0.28500
7.36580 4.45777 0.09881
7.49348 -2.57966 0.58602
5.32829 0.25444 0.13500
5.29470 1.68436 0.12000
7.04770 4.11861 0.16851
0.86554 0.07041 -0.01500
5.95760 -1.81497 0.46927
9.73393 6.14750 0.04418
14.37089 -2.19408 0.15859
5.69482 3.73145 0.52468
12.38956 4.44995 0.36039
6.48038 -2.53972 0.31456
3.14224 2.20358 0.42000
13.01899 5.84303 0.57492
8.01697 -1.97439 0.03000
12.04873 5.00908 0.25500
7.02868 -1.63937 0.16675
4.54413 0.53205 0.28500
16.16349 4.85536 0.53852
4.27035 2.05963 0.27000
10.70380 5.15218 -0.00000
8.71922 -1.57014 0.03000
6.66865 -3.57250 0.52718
3.96294 0.57542 0.27000
12.02534 -2.24864 0.17017
14.37842 4.31596 -0.00000
4.57322 0.04250 0.48584
3.70362 5.22024 0.10000
9.44117 -1.15750 0.23659
4.74849 1.47743 0.26738
5.62290 2.22096 0.15000
6.85828 -1.17118 -0.00000
0.54849 0.62453 0.09759
4.65827 5.78967 -0.00000
2.54529 1.51912 0.40500
5.20734 -2.35750 0.15912
8.54758 4.85250 0.18240
5.49055 3.75312 0.95195
2.94849 -1.52744 0.13697
10.72775 -2.81201 0.12946
5.20330 -2.86047 0.03000
8.27203 3.70250 0.26124
4.25657 0.94653 0.25500
3.72605 -0.12620 0.28500
13.00187 -3.66750 0.16489
5.10810 5.72290 -0.01500
5.60750 -2.17894 0.58494
3.64146 -2.92197 0.13000
1.34849 0.73408 -0.00299
12.50274 5.72347 0.29002
-0.05611 1.22263 0.15459
2.99849 5.64038 0.02225
9.58431 4.73579 -0.00000
3.69319 -0.77010 0.12000
1.50586 1.41906 -0.01500
2.97489 6.06157 -0.00000
5.47636 0.27624 0.12000
3.69867 0.10318 0.28500
7.69358 -2.42187 0.18808
6.20070 -2.66341 0.23962
14.57436 3.96347 -0.01500
11.33349 -1.77032 0.74588
13.24374 4.90806 0.23504
3.66779 -1.63763 0.13500
3.27108 4.86663 0.13500
10.88188 5.86789 -0.00000
4.74087 5.46951 0.10000
9.86789 4.07998 -0.00000
3.02337 6.11750 0.25952
7.76823 3.75250 0.17004
10.16349 4.19759 0.46766
11.92131 -1.12250 0.14442
0.17769 1.24672 -0.01500
11.34223 -2.45250 0.02556
6.68091 3.84111 0.48938
7.58321 4.81048 0.02502
6.46308 4.84692 0.31883
9.73330 -3.60250 0.45289
5.30881 -2.63273 -0.00000
10.76942 5.64376 -0.01500
7.63733 4.87624 -0.01134
2.30804 1.64997 -0.01500
7.11796 -2.16213 0.14283
0.24849 0.34415 0.21391
2.10813 2.06500 0.05526
11.54702 4.27922 0.58615
6.44705 3.75250 0.48984
3.61005 1.00111 0.27000
12.81131 -1.18750 0.38567
4.38302 6.10250 0.49111
2.87053 0.11115 0.40500
8.50720 4.08046 0.10000
13.02050 3.94757 0.25212
6.34882 -1.15750 0.49809
3.94100 0.92522 0.27000
5.64760 -1.41807 0.57420
12.81402 3.83261 0.24666
3.54848 2.37334 0.35117
7.59719 6.11750 0.70901
5.01625 -2.35750 0.28609
5.66474 3.70250 0.14479
12.53447 3.74444 0.25806
11.98498 3.73250 0.59777
6.84505 -1.92154 0.23148
11.55169 4.90250 0.49351
13.51540 5.81752 0.64931
3.78989 -1.15750 0.24678
4.11456 1.33606 0.27000
11.70222 -1.99204 0.19947
3.16672 0.60050 0.13500
14.66457 3.73250 0.31115
12.02700 -2.25348 0.28750
5.53234 -1.97217 0.58322
8.49499 4.22172 0.10000
15.04239 -1.27067 0.01811
7.69022 -3.25777 0.65421
6.27672 5.37579 0.24499
10.89371 5.51081 -0.01500
14.94777 -2.21807 -0.00000
7.92337 3.70250 0.10991
3.72722 4.92476 0.10000
2.93231 -0.21533 0.13500
7.68862 5.76333 0.64518
9.08381 -1.20374 0.01500
11.47885 4.80250 0.47993
2.11082 0.06791 0.14831
5.35858 2.20204 0.12000
10.98859 4.98250 0.06894
5.12400 4.90250 0.38885
7.20962 6.11750 0.94706
12.70670 -2.90256 0.07830
6.79774 -2.77504 0.38122
-0.39233 1.33753 0.04897
6.93453 5.44397 0.28780
6.51468 3.79732 0.43039
4.68780 4.90250 0.09484
12.06080 4.35170 0.56875
1.79484 0.91779 0.08500
5.37536 4.27745 0.47708
2.94849 -2.58945 0.39793
14.72815 4.72633 0.05633
1.34849 0.37900 0.01585
9.20827 5.27924 0.09400
14.64237 -2.01817 0.02141
4.08542 2.35715 0.28500
3.50845 1.70194 0.12000
6.84846 -2.40250 0.09408
14.88307 4.33250 0.04357
10.21278 -2.77240 0.15535
2.93349 4.43285 0.47655
9.84964 -3.21296 0.01500
3.63064 1.54131 0.28500
5.25947 -2.78848 0.01500
10.14849 3.89835 0.03934
9.06040 -1.28271 -0.00000
3.08188 5.04010 -0.00000
12.15703 -1.91526 0.33051
2.22944 0.15629 1.43929
3.85682 6.05250 0.08030
16.14849 -1.55865 0.33222
3.64849 0.19571 0.30602
0.09288 0.05000 0.47868
3.05289 3.79824 0.24911
10.27472 -3.07193 0.02465
11.31849 -1.19774 0.16969
0.04369 0.15000 0.73116
9.30581 -1.26687 0.01500
9.54865 -1.81710 0.03000
15.07740 4.33250 0.05054
11.38809 -2.01729 0.23337
15.96576 -1.17250 0.60410
6.03191 4.87250 0.02953
12.18692 4.31329 0.37730
6.16813 -2.16503 0.41919
2.80852 -0.05116 0.27000
4.31263 -3.52348 0.01500
2.22197 0.12399 1.26775
12.58521 -3.68250 0.49537
5.50112 4.96585 0.02163
4.42790 0.05750 0.53581
12.03205 4.38225 0.51940
9.78119 -2.13224 0.03000
10.21947 5.51749 0.04308
11.77497 5.87264 0.09217
2.76705 2.86678 0.13500
4.34908 1.78254 0.25500
5.71875 1.51001 0.15000
3.83590 -2.64460 0.01500
13.61670 6.00989 0.97154
14.41990 4.12408 -0.01500
1.74849 2.03844 0.08027
4.02021 1.30783 0.27000
6.31872 3.83253 0.37937
6.03666 4.32191 0.55848
3.80190 2.14620 0.27000
3.21965 -1.22879 0.16500
7.68202 -3.20770 0.74277
11.71733 -1.77179 0.44071
5.69122 -2.49398 0.11863
13.61929 -2.91539 0.13930
13.64796 5.06250 0.08729
8.94892 4.91750 0.10613
10.68449 5.53130 0.00052
3.01829 0.37897 0.40500
6.61262 -3.37716 0.34999
12.37338 -2.40250 0.07689
2.64849 2.66568 0.69569
7.12817 -3.30765 0.45423
12.87958 -2.83957 0.00000
3.18580 1.15638 0.39000
11.73820 -3.29161 0.15535
10.32286 -3.22372 0.15829
6.23960 5.23594 0.33857
11.93926 -3.61750 0.46922
0.80920 2.46500 0.07487
6.61718 -1.20719 0.27701
2.24849 1.40837 0.03459
3.22587 4.52597 0.15000
9.60089 4.73566 -0.00000
8.05175 3.70250 0.15831
13.65286 5.81809 0.83661
13.19079 -3.66750 1.10519
-0.22174 0.52590 0.11021
-0.14527 2.33548 0.11517
14.27173 4.63093 0.11237
13.69974 -3.68250 0.15344
2.42535 1.15543 0.13500
3.70232 4.69394 0.12000
9.62208 3.70250 0.31175
14.90279 -1.18750 0.05723
3.30598 4.84087 0.13500
3.92541 1.77116 0.13500
12.89730 4.39303 0.31318
2.84840 0.19415 0.25500
13.55625 5.48384 1.19717
9.22474 4.50272 -0.00000
5.63228 5.74697 0.05678
2.64849 -0.73087 0.44159
7.08893 3.75592 0.15113
3.32156 -2.39896 0.01500
10.60610 -2.88974 0.13914
0.34849 2.06526 0.26398
9.38321 -1.34143 0.01500
9.52728 5.28787 0.08078
3.10187 -2.88093 0.01500
11.72146 -1.59860 0.10052
5.25848 4.90250 0.35144
8.35894 4.24852 0.10000
8.19732 3.87789 -0.00000
2.17199 0.16791 0.33484
14.16895 3.74646 0.10000
2.93349 -2.49963 0.38145
12.23514 4.94750 0.10209
13.64415 -1.40652 0.15859
10.14760 -2.58201 0.10932
13.59849 -2.38971 0.27086
12.68070 -1.88962 0.27772
0.75858 2.48000 0.05496
1.58800 1.32947 -0.01500
11.57445 -2.20086 0.28750
9.07908 5.92700 -0.01500
4.88035 4.88750 0.40934
12.10908 -2.55637 0.18703
14.35682 4.94750 0.42696
1.88874 0.86791 0.03345
4.53879 -3.18220 0.06608
13.18663 4.37541 0.28640
15.62235 -1.36473 0.01500
4.02875 -1.22104 0.13500
0.04849 2.44913 0.24887
3.42297 4.15164 0.12000
2.48288 2.00542 0.13500
3.76923 5.35987 -0.01500
-0.41480 2.44206 -0.00882
5.85539 -2.63993 0.13156
2.86900 -0.84631 0.28500
3.31434 -3.31052 0.01500
13.89056 4.66581 0.02576
9.63410 -3.49733 0.00000
2.34849 1.23202 0.33415
4.41155 -3.57250 0.16666
5.63774 1.61494 0.15000
4.71800 1.35226 0.27000
2.85943 2.66916 0.28500
2.23228 0.08810 0.55009
15.36311 4.33271 -0.00000
12.71749 -2.89936 0.19240
4.16349 -1.83751 0.30827
5.91218 5.98472 0.14731
12.81311 -2.48952 0.28426
2.14849 2.30868 0.04197
13.93937 4.83992 0.03884
10.63399 6.14750 0.28012
3.16883 3.79868 0.18000
5.89013 3.68750 0.45956
11.72146 -3.47824 0.02792
6.83612 -3.58750 0.08495
3.69354 4.47241 0.12000
3.04307 2.50649 0.32630
13.85488 -1.88962 0.03397
11.38809 -3.51427 0.10290
2.20569 1.66500 0.15016
4.87188 0.87239 0.13500
3.16252 2.80957 0.13500
3.34048 0.63311 0.40500
3.83349 5.56355 0.17715
4.16349 -1.79899 0.15372
3.84083 -2.57529 0.01500
3.12366 1.63024 0.40500
2.29849 0.00289 0.22564
9.55679 -1.82512 0.01500
5.37536 4.31391 0.50617
10.09849 4.07366 0.03617
2.94849 6.07103 0.57190
3.66107 0.06975 0.27000
11.13448 5.70254 0.07210
2.26240 0.46791 0.28444
3.61713 -0.55086 0.12000
13.28760 5.81012 0.60641
11.70864 -1.37202 0.34096
3.90297 -2.61273 0.03000
12.70876 -2.26142 0.34304
12.18267 4.98250 0.28490
2.94849 4.77232 0.21819
5.29409 1.81283 0.13500
3.85221 -3.35629 0.00000
12.20729 -2.80732 0.00000
1.64849 0.74823 0.00466
6.12780 -1.15750 0.19947
12.72158 -2.29037 0.11099
11.37536 3.95132 0.58875
16.16349 4.40654 0.11806
3.75913 0.05750 0.56548
12.25382 -2.38595 0.11500
12.43340 -2.24864 0.08250
8.54361 -1.20353 0.01500
2.99067 4.23750 0.04564
6.64947 4.99002 0.17947
11.97212 4.31460 0.61877
3.34684 0.02364 0.30000
11.68337 6.14750 0.42342
11.72125 6.00307 0.18928
5.37481 0.60750 0.06683
10.60381 5.65943 -0.01500
8.94849 -3.04204 0.33314
5.39822 0.67343 0.13500
9.71991 4.80781 0.10000
6.55335 5.32416 0.30358
10.09742 5.39814 0.02817
8.89271 4.34842 -0.00000
3.53787 2.59417 0.27000
4.96685 -2.65658 0.13000
4.06877 1.27250 0.25991
3.65522 2.47250 0.14182
10.15957 4.33403 -0.00000
10.14849 4.15745 0.37982
11.34732 -1.13750 0.17461
11.89785 6.04607 0.29124
5.33112 -2.61985 0.01500
2.98986 1.18884 0.27000
14.36217 4.14245 0.04364
3.70262 2.00429 0.13500
15.57043 3.79650 0.04246
4.46031 5.07352 0.10000
1.84849 1.92894 0.22583
13.04959 5.25923 0.59788
13.01009 -1.90086 0.10620
6.31111 5.12664 0.22030
13.36910 -3.32103 0.14849
9.43332 3.79112 -0.00000
9.57950 5.61649 -0.00000
12.11141 -1.61924 0.28479
7.39849 -2.37250 1.16379
7.28657 -2.60264 0.49667
13.63240 -1.97110 -0.00000
12.77741 4.01024 0.15014
3.25703 4.90250 -0.01263
3.24523 5.95365 -0.00000
7.30963 -3.57250 0.63022
10.80844 -3.60250 0.42040
13.04004 4.04626 0.18609
9.64662 -2.35539 0.01500
6.86324 4.44252 0.21161
2.10948 0.66791 0.12361
12.06125 -3.22253 0.12284
3.10738 5.67122 0.10000
11.52735 4.52569 0.56956
3.84229 -2.76742 0.01500
6.73221 5.07461 0.47056
3.86349 -1.01428 0.32420
12.52594 5.74015 0.34792
12.36897 -2.85645 0.11216
13.40393 -2.11923 0.15859
11.72146 -2.24648 0.27742
3.49191 -1.68293 0.15000
6.44475 6.11750 0.07142
3.52636 -0.28851 0.27000
5.68307 -3.55320 0.10092
14.66741 -1.17250 0.30624
5.29849 5.15358 0.03346
5.00712 2.47250 0.19214
11.49948 -2.89615 0.08272
11.34849 -1.74013 0.00160
3.44848 1.36801 0.31553
3.01707 3.94799 0.13500
0.04849 0.78692 0.11601
4.35618 2.03405 0.12000
11.32712 4.91750 0.07628
4.29481 5.64168 0.10000
5.07055 -2.87945 0.03000
3.66674 6.11750 0.04510
11.89958 -1.18750 0.49467
12.21322 5.54181 0.22797
2.05798 0.46791 0.01999
11.53240 6.13234 0.04555
2.64849 -0.77995 0.15400
11.65118 -1.67879 0.01500
5.46164 4.74977 0.65087
10.14849 5.41146 0.00087
2.14849 1.89544 0.25286
6.25954 -3.29630 0.25538
2.70407 2.38846 0.40500
11.70223 -3.27722 0.15282
13.70771 -3.24235 0.29614
12.25914 4.39732 0.43962
9.82497 3.68750 0.07882
5.47475 -2.42250 0.07586
10.39437 -3.03835 0.14499
7.69879 -2.38750 0.41356
7.15399 5.18737 0.44615
10.25819 -2.40250 0.13645
13.77849 -3.66593 0.05745
5.55729 1.25750 0.35015
3.27176 2.48750 0.21182
7.59106 5.37641 0.70069
4.63390 -3.58750 0.53223
3.12104 3.70561 0.15000
5.86594 -3.13413 0.13439
5.87708 5.84961 0.13790
7.34803 3.75865 0.10357
13.04945 -3.37575 0.24900
3.82472 -3.58750 0.27890
5.45643 -3.32817 0.04019
7.25145 4.23685 0.03104
1.13393 1.71070 -0.01500
9.38223 -1.28767 0.01500
11.54317 3.73250 0.54787
12.60189 5.28083 0.29822
3.98975 1.13518 0.27000
16.14849 -1.69275 0.07193
14.41339 -1.89603 0.07521
0.04849 0.76838 0.10177
12.42340 3.90276 0.31393
4.14849 4.53194 0.13731
-0.07161 1.75003 0.15043
12.55826 3.73250 0.14492
14.18825 -1.42280 0.15535
2.70442 1.03202 0.25500
2.07156 1.68055 -0.01500
3.73611 -3.10872 0.13000
0.87570 0.81439 0.08500
12.06214 -1.12250 0.61931
13.30474 -3.46887 0.28426
5.42597 4.14092 0.58119
5.11355 5.84292 0.10000
14.67743 -1.55770 0.02141
2.94849 -3.09792 0.17894
12.28874 6.13250 0.62817
3.08583 -0.79516 0.13500
6.65103 5.09081 0.55210
7.40941 4.91750 0.35258
13.67514 6.13250 0.06382
11.31849 -1.37612 0.33930
6.12559 -2.16928 0.46165
6.99061 5.17091 0.43627
4.17324 6.10250 0.37142
11.66954 -1.23481 0.01500
11.78526 5.83533 0.09777
4.83479 -2.78230 0.03000
14.50124 -2.12405 0.02465
5.40189 -1.41945 0.63607
4.74689 0.27112 0.27000
10.60535 -2.38750 0.55408
5.47522 -2.42250 0.08411
6.82588 3.77482 0.22161
4.49117 -2.74150 0.01500
7.17204 -3.25878 0.48151
11.50091 -2.17122 0.01500
7.97739 4.91750 0.18406
6.66036 4.32898 0.28783
8.54407 -2.27276 0.01500
13.14904 3.76113 0.14136
12.37797 -2.08645 0.18423
5.43087 4.79688 0.61727
11.10359 -2.58567 0.01500
0.53384 1.96500 0.17708
12.32897 -2.57560 0.22505
3.86303 0.05750 0.66915
2.93349 6.03861 0.56189
2.85047 2.45379 0.40500
0.09242 2.48000 0.30134
2.28533 2.18445 -0.01500
13.62495 4.90894 0.02937
16.14849 4.73083 0.01600
12.10292 -2.04680 -0.00000
14.65552 -1.55341 0.02141
10.11673 -3.55250 0.04980
3.59788 3.53941 0.28500
11.57612 4.38981 0.61288
11.50898 4.03815 1.02075
13.37930 -2.50516 0.01821
6.01896 -3.57250 0.04554
11.66248 -1.58189 0.23983
7.67730 -1.97288 0.03034
6.41274 4.87250 0.16686
4.14737 2.47250 0.56540
5.60777 1.16631 0.13500
2.97575 -0.28427 0.27000
5.18979 2.34417 0.15000
4.84848 0.06045 0.20356
2.92194 1.82347 0.25500
5.41446 0.05750 0.55715
4.82835 1.54057 0.18000
3.38185 1.06475 0.39000
6.84156 -1.15750 0.70523
15.17492 3.73250 0.00271
8.38282 -1.86464 0.01500
7.60107 5.03740 0.58147
15.59410 4.08074 -0.00000
12.11288 -2.36156 0.28750
7.95333 -1.23288 0.01500
6.91132 -3.41689 0.38943
11.44466 4.09306 0.83866
6.57229 -2.02778 0.31090
6.37568 -1.92793 0.37911
0.52034 1.60115 -0.01500
3.51721 1.58267 0.12000
5.45810 1.22147 0.13500
11.50994 4.24454 0.55869
3.55422 1.37250 0.25358
12.66683 5.06920 0.38857
2.93349 4.80202 0.51479
12.63466 5.12172 0.32537
4.49557 1.17948 0.27000
14.38348 4.72523 0.04058
11.18842 6.08250 0.01236
9.03724 -1.52224 0.01500
11.88409 5.52955 0.28711
11.31849 -1.24286 0.17440
5.83073 -2.02536 0.50326
11.33349 -1.60408 0.61530
15.15902 3.78250 0.08826
9.75102 -1.98590 0.01500
6.95587 4.43975 0.17126
3.16341 0.00701 0.27000
1.04848 2.35188 -0.00045
6.53505 -1.81805 0.33641
3.62184 -0.43396 0.27000
4.64961 1.27250 0.68467
11.53142 3.77656 1.16244
8.94849 -3.08896 0.44611
15.63834 3.73250 0.30180
5.07840 -3.49571 0.01500
15.07501 4.31124 0.10071
3.86459 -2.82492 0.01500
5.19959 0.84323 0.15000
3.37814 4.42915 0.15000
8.77420 4.91750 0.46766
12.61065 -3.60250 0.12582
3.51021 0.16256 0.40500
5.57876 -1.90501 0.57712
13.10691 -2.24223 0.10923
14.97152 4.24081 -0.01500
13.05551 -2.57560 0.12271
15.59785 -1.18750 0.42834
11.88394 -3.06136 0.15859
13.23885 -2.54927 0.28750
4.17938 2.10540 0.13500
0.34849 0.24092 0.23028
11.80415 -2.34233 -0.00000
7.41713 5.32098 0.53219
4.15207 3.68750 0.40318
7.67694 -2.38750 0.16914
5.94768 1.51936 0.12000
5.76104 -1.92376 0.54380
13.49613 5.96771 0.55335
13.39474 -3.12376 0.13339
7.62949 -2.37250 0.11602
5.57331 4.86036 1.06764
5.37536 -2.10350 0.49365
5.54182 0.31694 0.15000
15.35309 -1.18750 0.05995
8.56870 -2.28092 0.01500
3.38383 2.18316 0.13500
3.26955 -3.04504 0.00000
13.14808 -2.03515 -0.00000
12.70876 -2.32981 0.19890
7.39461 5.80364 0.54452
6.59278 4.92471 0.32967
15.23424 4.80618 0.07217
0.44849 1.50471 0.06638
2.93349 5.23167 0.31891
6.27014 4.42399 0.37053
13.79849 -1.31933 0.06188
7.29313 -1.16582 0.13328
4.39107 4.90250 0.30856
3.82537 -1.51838 0.13500
12.41522 -1.18750 0.29985
12.27608 -1.24210 0.05756
13.76349 -2.87890 0.51602
14.44159 -1.24499 0.15744
13.71193 -1.50908 -0.00000
5.18838 -3.57250 0.57301
12.38821 -2.11698 0.23225
7.14410 5.92902 0.47740
3.31248 -0.40660 0.13500
10.38796 -3.21186 0.05526
11.26262 -3.22249 0.00000
8.00626 4.16573 0.10000
6.41253 -2.88420 0.29638
6.48056 -1.66671 0.35101
14.93597 4.91327 -0.00000
6.16153 5.76790 0.19859
3.33937 1.95942 0.40500
2.30779 1.52239 -0.01500
13.41412 -1.18750 0.44455
15.09120 4.31749 0.02052
7.64625 6.00983 0.61195
3.11710 1.41058 0.39000
3.43514 4.40805 0.15000
10.41843 4.93250 0.01705
13.81977 -2.38750 0.23329
1.70030 1.26500 0.00733
2.68642 -0.93544 0.25500
3.63251 -1.94997 0.13500
12.96956 5.79589 0.41226
7.24381 -3.14336 0.51912
13.47263 5.06280 0.54706
6.82335 5.73852 0.39146
15.94020 4.65395 -0.01500
6.40841 -3.58750 0.02148
10.94187 -2.89615 0.01612
15.45976 3.73250 0.02879
11.09056 -3.60250 0.11690
6.53864 -3.57250 0.91403
5.70927 5.66660 0.05904
6.16599 5.88053 0.18142
7.56710 -1.90933 0.02248
13.37788 4.26724 0.05818
3.33810 2.78837 0.27000
0.48850 0.63211 0.25500
13.71244 -3.68250 0.72331
0.27040 0.26791 -0.00013
13.42477 -3.43564 0.15535
9.59848 5.90578 0.09950
9.89268 5.53250 0.01502
14.12149 -1.56265 0.15846
4.14849 -2.35295 0.50137
7.12300 3.70250 0.37061
0.65993 1.76500 0.02800
5.73143 3.68750 0.83150
1.94849 0.20112 -0.00204
5.39036 4.44126 0.46405
12.18592 4.87749 0.27404
14.37671 4.71924 0.14050
7.68093 -3.57250 0.36363
1.94849 0.89016 0.05270
11.52048 4.05979 1.12163
12.48215 4.41582 0.33558
12.37859 -1.50028 0.29030
5.43784 5.66454 0.00468
2.94849 -2.86972 0.29760
3.49545 -2.24583 0.15000
9.06351 5.07772 -0.00000
10.58454 4.93250 0.36428
13.57480 5.08591 0.55891
1.74849 0.35724 0.19207
12.55953 -2.90898 0.28825
11.99470 -2.22940 0.09908
13.61796 5.50584 0.96685
6.24004 5.80987 0.20126
13.30042 3.89097 0.23276
2.93349 3.81282 0.20069
7.09013 6.10250 0.62800
13.71106 -3.12637 0.11117
12.59962 -3.02222 0.28426
14.03150 4.92257 0.10000
10.49969 5.98485 0.10859
1.64849 0.16909 0.13535
12.83333 -3.61750 0.14409
0.10552 2.26500 0.25646
13.32749 -2.02451 0.15535
6.28538 -2.15121 0.36591
12.37818 -1.24827 0.28750
14.90353 4.94750 0.54399
5.38748 4.20306 0.29073
4.87317 1.68111 0.13500
3.75824 0.44176 0.25500
8.93349 -3.21622 0.47501
14.51271 -1.18750 0.53686
1.94849 0.47157 0.20169
16.09535 -2.01521 0.01500
11.70361 4.98250 0.15944
12.41289 -2.95985 0.00000
1.19248 0.05000 0.26239
3.92829 3.71244 0.20077
2.78632 2.04963 0.39000
15.42702 -1.23750 0.05009
13.54948 -3.61750 0.39824
7.00113 -2.32250 0.26319
5.47630 3.75961 0.60510
7.18513 5.17988 0.47286
12.84374 6.14750 0.89580
3.29820 -0.50750 0.25250
7.95134 4.78017 -0.00000
13.92569 -2.04216 -0.00000
2.14849 2.26754 -0.00257
3.55668 0.35730 0.39195
14.11679 3.81359 0.02282
14.12647 -1.56265 0.08365
3.68985 6.11750 0.01748
10.94462 -2.40250 0.21665
2.35733 1.36511 0.25500
0.14849 0.82913 0.16245
4.01440 5.31278 -0.00000
5.63491 0.30473 0.15000
11.84304 4.79908 0.59788
6.25779 -3.57250 0.11647
9.81606 3.70250 0.37209
6.79862 -1.58857 0.26578
7.65884 -3.45031 0.77135
12.73779 -3.24596 0.01500
13.44555 -3.60250 0.14100
5.68506 -1.38613 0.56416
13.07678 -2.56278 0.03305
9.00202 -1.42063 0.01500
3.95962 0.17417 0.12000
10.27545 -3.29331 0.15859
4.02508 1.85769 0.25500
10.37348 5.47951 0.08880
2.55853 2.26341 0.27000
15.02480 4.84339 -0.00000
4.16349 4.36685 0.50086
12.77176 6.14750 0.64496
10.80131 5.21522 0.11878
8.25985 4.90250 0.16736
2.98856 1.21980 0.13500
4.35847 0.15227 0.25500
2.94849 -1.78035 0.03523
7.52752 5.43144 0.58014
5.41107 0.79793 0.15000
12.45806 -1.41019 0.15859
12.63000 4.86850 0.30273
5.39036 3.75515 0.55177
10.22532 -3.60250 0.37934
2.19652 0.06500 0.02558
8.10531 3.98340 -0.00000
6.17794 6.06644 0.20015
16.02233 3.95657 0.02485
7.44543 -2.14631 0.07694
11.70615 5.43860 0.07657
12.26907 5.88350 0.20904
7.14543 4.08477 0.12046
3.05901 -2.35750 0.44157
6.00454 4.63429 0.42616
2.57010 0.13134 0.25500
2.49144 1.75567 0.42000
2.99289 0.86912 0.25500
10.78700 4.93250 0.32164
6.00629 5.13867 0.27605
5.65746 5.23467 0.18258
5.36338 5.04565 0.05022
4.92632 5.64309 -0.01500
5.77279 2.44113 0.12000
12.88782 4.15053 0.27449
12.52636 -2.57560 0.15798
5.42413 0.54896 0.15000
7.50008 3.68750 0.22505
3.03189 3.94718 0.13500
14.27682 3.96265 0.06276
3.04044 0.32096 0.27000
7.45831 4.56388 0.07402
12.82882 -1.84271 0.15859
3.17790 -0.15203 0.27000
5.80202 0.05750 0.19806
2.93349 5.41337 0.31430
10.92978 -3.16526 0.01500
7.26741 -3.40035 0.52544
5.92321 -3.21001 0.14974
5.85488 -3.31412 0.11305
12.02006 6.14750 0.55481
2.94849 -2.89424 0.02211
5.45625 4.90250 0.75473
1.04848 2.18103 -0.00249
9.66943 5.73619 0.10728
11.04870 -3.53085 0.06572
8.64973 -1.48911 0.13000
4.00661 -2.76806 0.01500
4.66147 1.15750 0.17941
6.91074 -2.33530 0.22021
11.47270 4.93511 0.88535
5.26931 1.07151 0.15000
5.65283 -1.77706 0.55727
15.99966 3.99955 0.01540
10.09201 3.91216 -0.00000
3.48295 -1.09147 0.27000
11.93224 5.73108 0.15268
4.81828 2.12906 0.16500
-0.41695 0.28621 0.04237
10.99365 5.92912 -0.00000
12.73178 -3.04222 0.28750
7.78845 -2.09254 0.01500
12.81335 6.05493 0.35488
6.34066 -3.12270 0.27712
11.97363 5.38374 0.28413
0.74849 0.89516 0.06016
13.69358 5.18305 0.33907
15.02296 -1.93251 0.15535
12.45661 6.13250 0.71104
0.40171 2.46500 0.05725
10.43207 -2.41014 0.11500
3.81576 6.05250 0.07852
8.40549 -2.09000 0.03000
3.82949 -0.27601 0.27000
6.43847 4.67479 0.45081
2.44351 0.64831 0.13500
5.71655 5.86752 0.09489
5.94849 1.65715 0.12917
11.34849 -1.68267 0.15413
5.37536 4.12858 0.29936
5.86798 -2.89689 0.22202
2.14759 1.51497 0.08500
5.22222 0.32153 0.12000
11.93379 -2.55932 0.01500
4.02279 3.73040 0.27450
4.12152 5.19555 -0.01500
3.85072 2.30451 0.27000
2.63349 3.18469 0.13515
1.99311 2.26500 0.14546
11.36071 -3.56529 0.01500
4.57045 1.25750 0.14418
11.53024 5.93269 0.02944
3.28849 3.92570 0.15000
4.59253 1.59933 0.27000
7.79849 -1.82503 0.06569
6.32167 5.67795 0.24150
12.53624 4.56945 0.42293
12.20198 -1.88962 0.24896
7.12590 4.01991 0.14756
13.39185 6.14750 0.67579
0.14849 0.34569 0.04623
0.89615 2.46500 0.41757
4.76759 0.90092 0.16500
4.62679 1.81268 0.27000
8.97594 -1.17250 0.08216
1.53723 0.06500 0.06756
9.48932 -1.40629 -0.00000
1.63764 0.56311 0.16500
13.13573 4.94750 0.29810
10.48671 -2.89615 0.15945
12.39462 -1.82198 0.18606
4.24059 0.41825 0.12000
4.35711 1.53896 0.28500
11.44963 -1.12250 0.84329
1.99565 2.03145 0.25500
7.91436 -2.25122 0.13000
13.76349 -3.27822 0.31592
6.44179 3.74343 -0.01500
12.26509 -2.91884 0.15859
7.43986 -3.44325 0.55612
4.26893 -2.97463 0.00000
2.68053 1.61106 0.40500
1.63297 0.10335 0.16500
6.08137 4.17712 0.54650
4.89906 1.19749 0.13500
5.36131 0.05750 0.10341
11.62458 4.78320 0.56537
13.76630 -1.57548 0.10565
3.42066 3.99080 0.13500
11.33792 -3.04866 0.01500
8.94849 -2.58220 0.57520
6.08503 5.94681 0.17809
11.49580 5.39815 0.16604
12.01033 -1.88962 0.32502
10.62357 5.46749 0.05276
5.48462 -3.58750 0.39221
3.68433 4.95250 0.14923
0.24849 0.16169 0.03317
14.66437 -1.18750 0.42731
3.29348 -0.70226 0.28500
12.41425 5.42647 0.26631
6.39697 5.62118 0.27721
8.27996 3.74037 0.10000
5.31976 1.87648 0.12000
4.87083 2.47250 0.33168
6.87431 4.91750 -0.00749
12.57189 4.20095 0.35111
1.00713 2.10005 0.03500
11.39748 -3.56690 0.16180
12.55743 5.06250 0.15745
2.09689 1.77287 -0.01500
3.02390 4.66574 0.15000
5.81487 -1.17250 0.92349
3.32472 0.32772 0.39000
7.46809 -3.55639 0.57921
12.40422 3.82600 0.40412
7.66664 5.77280 0.72723
5.39548 3.95259 0.60489
13.40053 -1.42651 0.01500
13.93787 3.84319 -0.01500
12.38940 6.13250 0.58129
12.50625 6.14750 0.90632
2.64849 -0.28899 0.43278
11.96593 -1.18750 0.02620
15.60892 -1.17250 0.39291
3.30000 4.43691 0.15000
8.43275 -1.22250 0.03278
7.34745 -1.17250 0.00357
7.17169 4.65997 0.15082
9.36159 6.01519 0.03109
0.18872 2.26500 0.32984
3.69268 -0.17059 0.27000
3.24956 1.61590 0.13500
4.83903 6.10250 0.01816
4.75680 0.36198 0.16500
3.22661 -1.12716 0.27000
12.37539 -3.43923 0.10825
10.38796 -3.28566 0.05068
5.65379 -1.50184 0.55068
2.67165 -0.41555 0.25500
13.06137 -3.09380 0.29546
3.74418 -3.06706 0.03000
13.00748 -3.06321 0.01500
2.72135 3.56938 0.25500
5.39036 -1.48144 0.30966
15.35799 4.30350 -0.01500
7.54620 -1.22250 0.10428
11.33349 -1.22306 0.16910
3.72211 -0.47485 0.27000
13.45075 -1.23750 0.02838
14.88285 -1.17250 0.35776
11.33501 -1.29466 0.01500
13.54498 6.14750 0.85643
16.03887 4.93250 0.18881
5.39849 0.13432 0.07190
2.99333 -1.89100 0.15000
6.68238 -2.06611 0.25954
12.72646 4.89032 0.15316
10.21233 5.50533 0.08729
0.97211 1.80294 0.03500
3.99160 2.48750 0.19839
5.72209 -2.94564 0.09585
4.51747 5.52487 -0.01500
8.99849 -3.37728 0.09963
2.95295 0.69919 0.40500
6.60892 4.89760 0.40514
7.77917 -2.06824 0.01500
0.34849 1.23333 0.00165
12.72031 -2.20055 0.15750
9.79960 -3.39929 0.00000
10.14849 -1.90591 0.02117
5.87633 -2.55445 0.16823
1.56180 1.86228 0.16500
11.88582 5.47600 0.17139
13.52653 6.14750 0.67828
0.34849 0.75117 0.06809
11.70223 -3.05187 0.09206
6.15625 -1.17250 0.45224
2.68829 -0.62175 0.28500
10.90799 5.23023 -0.00000
9.56209 -1.49917 0.01500
12.36898 -2.53914 0.14175
7.55333 6.03364 0.69058
11.89964 3.71750 0.19458
8.63958 -1.97233 0.01500
14.57694 -1.57854 -0.00000
6.25385 4.95250 0.41465
4.31551 -2.35750 0.14504
11.79909 -1.56265 0.13756
11.31849 -1.77431 0.26216
7.70858 -2.52951 0.34735
7.67090 4.88286 0.00153
15.29406 4.26772 0.14450
9.25029 5.53278 -0.00000
6.45677 4.12006 0.48977
2.90913 3.67261 0.27000
2.36273 1.27250 0.12628
13.10250 4.47586 0.32818
4.16349 -1.75329 0.31545
8.57581 4.90250 0.04312
5.44765 0.52387 0.15000
5.81472 3.94119 0.47703
13.20343 -3.22953 0.31018
8.94849 5.23368 0.15679
15.41592 4.41781 0.13638
11.38848 -2.77275 0.09283
4.68832 1.89436 0.25500
7.76108 3.98199 -0.00000
0.34849 0.49319 0.23081
4.96775 -3.52250 0.06583
3.41245 -0.94798 0.27000
4.08707 6.05250 0.14922
5.24110 4.88750 0.18663
4.90319 2.43265 0.15000
-0.00151 2.50131 0.35702
8.95065 4.98250 0.04394
6.56036 -2.37250 0.32836
2.01777 0.26791 0.01966
13.69848 -2.19349 0.06206
5.38033 1.37737 0.13500
2.97513 -0.01224 0.27000
4.34860 0.90014 0.27000
5.80064 5.85030 0.11742
11.78655 6.13250 0.23707
7.42043 3.75250 0.15056
3.00334 -2.31869 -0.00000
3.30090 2.47250 0.40815
8.93349 -2.87668 0.53044
1.24849 0.47341 -0.01231
1.39943 2.46500 0.05323
12.11600 5.19159 0.16802
7.65743 -2.90289 0.61442
4.55508 5.78264 -0.01500
11.83088 4.44353 0.59788
2.18800 0.36791 0.01865
10.05755 -2.38750 0.34310
6.34382 4.61477 0.33525
2.12293 2.41107 0.83847
12.40100 4.33250 0.36635
7.11344 4.17713 0.16643
12.81915 -3.22312 0.19557
10.14849 -1.23130 0.49166
15.47726 3.71750 0.20917
10.70414 -3.40021 0.00000
12.37311 -1.18750 0.31599
2.77696 1.58808 0.40500
12.40972 3.83187 0.33313
6.86533 -3.03703 0.38380
0.05661 1.86500 0.19015
3.62280 2.22531 0.27000
12.67804 -2.58201 0.14156
5.15458 5.39811 -0.00000
5.09911 -2.57548 0.03000
2.57584 0.88103 0.39000
8.24866 -2.22599 0.01500
0.45474 1.86500 0.12424
6.44842 -1.24219 0.35962
3.72901 5.79743 -0.01500
4.35684 0.81677 0.27000
3.60636 -0.26058 0.28500
10.32516 -2.57560 0.13457
4.79765 1.41989 0.16500
4.94380 2.05786 0.15000
4.16349 4.57943 0.20385
11.70365 4.91750 0.37492
3.44849 0.10745 0.14176
14.24439 -2.40250 0.07690
3.16805 3.04207 0.28500
8.79118 -1.32981 0.11615
9.92229 4.98447 0.07510
2.65770 3.13135 0.28500
6.19287 -3.58750 0.40560
11.54424 6.14750 0.51243
13.38734 3.73250 0.64200
2.62596 2.22428 0.12000
13.03573 -3.03038 0.24399
3.54780 4.14731 0.15000
12.12257 -3.22953 0.07979
3.68424 3.80943 0.13500
3.49190 -0.35654 0.27000
11.99718 -2.27316 0.28426
6.02548 3.89283 0.45795
5.83488 -3.58750 0.28008
6.35419 6.03960 0.16545
2.70566 0.75012 0.27000
13.00147 -2.24847 0.11336
3.25813 -2.99963 0.00000
6.24626 4.95976 0.21845
6.73343 4.76298 0.17917
7.35149 -2.38750 0.10006
3.48464 5.09443 0.10000
13.77849 -3.01757 0.15305
11.63562 4.78099 0.54688
7.12328 4.59682 0.14826
3.73012 2.14823 0.28500
12.06125 -2.12719 0.09736
6.72617 -1.92429 0.26967
0.14849 0.63696 0.16299
4.34705 -2.42250 0.09550
2.94849 4.90878 0.36988
13.87212 4.93250 0.46569
0.44203 2.36500 0.21596
6.73505 4.95250 0.36963
0.74849 2.37798 0.03068
1.01612 1.03087 -0.01500
13.74405 -1.31010 0.11500
11.00748 -3.32201 0.01500
5.16789 0.61299 0.13500
13.04214 -2.99651 0.05218
13.42376 -1.91526 0.10261
2.75400 1.15521 0.13500
10.89756 5.01390 0.04123
13.73921 -1.32943 -0.00000
4.16349 -1.91547 0.15773
8.57967 -1.22250 0.08760
5.85716 3.70932 0.48752
5.86798 3.69773 0.47829
6.42065 5.44829 0.49061
11.31849 -1.51829 0.90470
5.51364 -3.30737 0.07105
12.26240 5.80848 0.22562
5.75988 5.32450 0.09097
15.26281 -1.21089 -0.00000
9.73752 -2.20894 -0.00000
5.47176 4.90250 0.60710
5.27822 0.65422 0.13500
6.75270 4.68692 0.24122
7.05796 5.19025 0.42042
4.18386 5.52134 -0.01500
4.88998 -2.80946 0.03000
14.36090 4.80229 0.13626
11.54452 5.49237 0.13557
8.21316 3.77719 -0.00000
10.59415 -3.61750 0.07267
12.48464 -1.13750 0.30745
10.16349 3.79860 0.39175
5.11463 2.47250 0.07219
8.42986 -1.76361 0.01500
14.99965 4.40531 -0.00000
5.54346 -1.47043 0.58657
6.22439 6.11750 0.23569
4.98527 -2.40340 0.03000
4.14206 4.69343 0.15000
8.94880 -1.74595 -0.00000
10.72134 -3.43084 0.13427
2.26045 0.06791 0.27837
9.35939 6.11435 -0.01500
2.65625 2.36544 0.13500
6.42846 4.22943 0.33444
5.43178 5.39987 0.12211
11.86721 4.56604 0.59788
2.48574 2.27854 0.40500
6.22331 4.41084 0.36755
8.97258 -3.44186 0.01500
11.55793 -1.57548 0.09967
4.88222 -2.51560 0.01500
12.96948 -2.63271 0.01500
9.63592 -1.95893 0.01500
2.71216 3.09884 0.12000
7.62265 6.11750 0.46183
6.30428 -3.42641 0.25184
8.83470 3.82270 0.10000
12.68918 -1.17250 0.24483
3.08416 -2.11187 0.15000
15.39866 4.53423 0.13176
-0.04968 0.06500 0.54860
1.84849 2.07699 0.23276
1.96577 1.86500 0.13100
14.25845 -2.22940 0.05810
7.01071 -3.41393 0.44113
11.07093 5.23045 -0.01500
5.49036 -1.17981 0.37304
4.84438 1.25750 0.25223
7.70966 -1.89743 0.00614
10.05726 4.54632 0.10000
13.67434 5.16403 0.60395
14.70723 4.93250 0.03670
4.33414 -3.44568 0.01500
9.75210 -2.44007 0.11500
12.76081 4.39082 0.31318
0.89041 0.05000 0.38021
4.99211 2.48750 0.13855
5.91580 5.47594 0.30676
2.38143 2.48000 0.58621
4.85907 4.90250 0.03462
0.21781 0.46791 0.09350
2.14849 2.14400 0.21609
3.99924 4.36301 0.13500
14.15370 -1.24581 0.06805
13.67653 5.06250 0.01042
2.18517 0.26791 0.24082
2.44849 2.42983 0.24485
3.27505 5.99553 -0.00000
6.15976 3.71034 0.32644
7.27975 -2.62203 0.51322
8.93163 3.68750 0.23383
3.20882 2.89651 0.28500
7.96876 -2.36071 -0.00000
11.34849 -1.26102 0.59669
2.88696 0.83532 0.40500
6.53447 -1.25827 0.12675
1.90240 1.66500 0.01573
9.13722 -1.24414 0.01500
14.22276 -1.84090 0.02141
5.42438 0.36741 0.15000
6.95088 5.27446 0.42562
8.46546 3.68750 0.15639
6.41531 3.75062 0.31610
12.96295 -3.61750 0.32603
7.18863 -3.58750 0.68216
12.39462 -1.35125 0.04663
4.12987 -2.38543 0.01500
3.24615 0.09687 0.25500
10.52964 -2.75246 0.02465
5.90372 5.02321 0.35184
6.94344 6.10250 0.11937
5.83097 3.68750 0.52631
13.25609 3.81218 0.12820
9.72633 -2.19353 0.03000
11.75174 4.31749 0.61991
5.91942 -2.37090 0.60489
5.46675 2.48750 0.53892
13.08035 -1.21645 0.01500
11.92809 3.96097 0.46218
2.51330 1.95037 0.12000
12.83182 5.21428 0.45694
13.32449 3.82851 0.20154
-0.22246 1.55025 0.11001
5.72164 4.65882 0.52383
6.42999 4.35032 0.34956
9.76825 5.17042 0.10084
16.14849 4.15659 0.28546
3.09608 3.32731 0.28500
10.14077 -3.53603 0.15535
9.47578 4.65435 -0.00000
13.03572 -2.71790 0.05585
5.98603 -2.69147 0.16657
2.69903 1.11447 0.13500
3.70458 1.32250 0.50482
7.65929 -3.39416 0.59654
2.63216 1.84113 0.39000
15.54503 4.04304 0.13722
14.89981 -1.17250 0.13268
15.30132 4.59485 -0.01500
10.69759 4.93250 0.07022
9.52379 -1.75140 0.06910
8.74825 4.90250 0.00974
12.79962 4.94750 0.15229
3.74353 0.05750 0.66338
6.74907 3.75250 0.31241
3.41247 3.58470 0.27000
4.27574 0.05750 0.72767
12.04843 -2.56816 0.22087
8.19408 4.90250 0.29121
14.62423 4.11156 -0.00000
3.33969 0.89051 0.42000
10.80050 5.32003 0.13452
1.14849 1.15589 0.00202
9.92063 -3.60250 0.15020
12.99611 5.81026 0.41937
11.64854 4.91449 0.52156
3.74917 -0.35988 0.25500
3.22014 -2.09856 0.12000
13.99968 3.73250 0.43225
12.55847 -2.05404 0.28750
11.81323 6.09599 0.08689
3.34098 -1.02245 0.13500
3.04141 2.33773 0.40500
8.63992 4.57968 -0.00000
11.39609 -3.48451 0.01500
12.77923 4.69720 0.31318
11.80359 -2.22940 0.18803
9.57293 -2.66879 0.01500
12.25247 -3.24276 0.06670
3.57901 -2.83449 0.01500
12.71518 -2.68673 0.29161
5.30263 -3.44747 0.11500
4.11752 4.70667 0.13500
12.61893 -1.57548 0.12483
5.86098 5.37844 0.13359
10.43271 -2.82671 0.02141
4.84849 2.42755 0.03088
12.07599 4.26809 0.56747
3.64446 -3.57250 0.36969
3.10796 -0.01358 0.25500
6.04308 4.04956 0.41584
12.74348 3.71750 0.34571
2.93349 3.83419 0.42085
13.79937 -2.09426 0.01500
1.84849 2.36337 0.15668
13.69465 5.21162 0.59102
12.54948 6.08927 0.03510
11.42807 3.96503 0.71878
7.40349 -2.51956 0.54353
12.55287 4.28560 0.30110
3.91503 1.27250 0.31118
7.38955 -3.36132 0.53980
3.67037 0.08524 0.25500
5.49036 3.73381 0.24207
14.43196 4.53583 0.09185
4.07747 4.83423 0.13500
3.05112 2.30395 0.40500
4.05734 2.47040 0.13500
3.41719 -3.41491 0.01500
2.94849 3.94319 0.35648
6.36577 -1.60701 0.38177
13.70247 -2.85448 0.05961
14.94848 4.60031 0.00736
11.29849 -3.47737 0.11204
4.96078 2.48750 0.09800
2.14849 1.91071 0.12507
11.23560 5.49549 0.00241
10.09849 4.22784 0.00979
3.80687 -2.55485 -0.00000
0.34849 0.38871 0.23798
6.32629 -3.16536 0.23937
6.20561 4.90250 0.47363
11.93806 -2.55637 0.11831
13.74138 -3.16597 0.01500
12.08888 4.76049 0.44096
7.33584 6.11750 0.26086
5.41245 1.27427 0.15000
3.76725 -0.05750 0.07793
11.72075 4.47457 0.59788
2.64008 2.04367 0.40500
1.50612 0.74012 0.08500
11.31858 -1.19934 1.21500
5.61107 -2.34250 0.15017
13.25283 -1.91526 0.15424
9.81221 5.53457 -0.00000
2.49889 2.36790 0.42000
9.02879 4.63566 -0.00000
12.29640 -1.13750 1.15740
2.94849 -1.65910 0.57564
12.22358 6.13250 0.80071
2.94849 -1.21251 0.03413
5.40538 3.86481 0.63407
11.61032 -2.88974 0.06838
13.55744 -1.20906 -0.00000
3.82119 0.93548 0.27000
6.90721 -1.15750 0.63318
13.34796 4.94750 0.13772
5.03492 -2.74836 -0.00000
7.39674 -2.08430 0.06813
6.55749 -1.54969 0.29300
0.85281 0.21166 0.08500
14.39848 4.87469 0.06871
3.48023 1.74058 0.12000
3.80008 -3.04780 0.03000
-0.21197 0.76250 0.07093
12.66126 3.71750 0.69776
7.62645 4.97512 0.68405
6.30520 6.10250 0.82801
