# .PCD v0.7 - Point Cloud Data file format
VERSION 0.7
FIELDS x y z
SIZE 4 4 4
TYPE F F F
COUNT 1 1 1
WIDTH 1779
HEIGHT 1
VIEWPOINT 0 0 0 1 0 0 0
POINTS 1779
DATA ascii
1.37296 -9.59219 0.17356
-3.60668 -8.29907 0.01500
-8.20175 -16.28166 0.03000
-9.93096 -10.30222 0.51377
-5.34974 -15.53612 0.09485
-5.00356 -9.81928 0.01500
-6.17282 -17.44735 0.56372
-0.09760 -16.08167 0.15536
-12.73097 -11.70834 0.02581
-3.53829 -8.55333 0.10882
-2.36930 -17.47735 0.01760
-0.03097 -16.82376 0.09284
-6.88649 -8.68510 0.11500
-13.53096 -12.04082 0.16366
-5.79597 -10.09997 0.21421
-13.46035 -13.59194 0.05755
-10.37208 -14.95058 0.27000
-10.38496 -16.53333 0.08162
-1.66030 -15.77667 0.15859
-8.41145 -13.80235 0.07581
-1.46307 -8.36209 0.09972
-4.30251 -8.37235 0.07833
-7.95303 -10.17235 0.10711
-4.84596 -16.28142 0.30824
-1.55852 -8.84529 0.01500
-11.46459 -12.03672 0.18000
-7.93109 -13.05852 0.15000
-13.81534 -13.09194 0.03887
-4.92957 -16.23235 0.58809
-8.41826 -10.17959 0.61500
-5.07051 -15.28590 0.13000
-10.10760 -12.58735 0.55507
-8.90853 -16.46550 0.00000
-9.81219 -8.38059 0.11500
-6.95298 -10.18735 0.07241
-11.69264 -12.09485 0.08308
-4.84596 -17.23997 0.10425
2.26756 -9.24210 0.05014
-13.58761 -11.39485 0.49305
-11.57844 -11.69485 0.28008
-2.71817 -16.88695 0.10514
-11.73096 -11.66992 0.35700
-4.80096 -8.51432 0.41394
-5.22967 -15.90286 0.00000
-12.03096 -13.33019 0.02706
-10.64642 -8.30576 0.00000
-0.75233 -17.42275 0.18559
-9.92031 -17.43235 0.40878
-12.03096 -11.58800 0.25658
-13.75222 -11.50685 1.45436
-13.80035 -11.89485 0.18746
-1.45377 -16.04251 0.00000
-7.60873 -8.22048 0.17814
-10.31801 -13.97637 0.28500
-10.83096 -8.21537 0.21448
-8.92647 -13.66738 0.15000
-4.17195 -8.15805 0.10793
-0.04916 -15.10195 0.07849
-1.43420 -9.34494 0.01500
-8.44596 -9.54341 0.59173
-1.13191 -15.03235 0.30127
2.41404 -10.14653 0.32509
-14.19214 -12.08094 0.05852
-13.63096 -11.70027 0.11998
-7.54915 -8.06664 0.01500
-9.22657 -8.97235 0.58886
-0.01596 -16.41817 0.98468
-6.90816 -9.83491 0.16591
-4.70378 -17.47735 0.22034
-1.39631 -15.03235 0.17257
-7.17562 -15.09005 0.13000
-10.83096 -16.15054 0.36506
-10.13761 -13.39883 0.15000
-4.81596 -8.33626 0.05078
-8.44596 -9.07096 0.60787
-10.25752 -9.04311 0.15000
-9.91596 -13.92084 0.27404
-10.84596 -16.06094 0.61070
-10.12378 -11.38735 0.38833
1.29556 -9.86173 0.07441
-4.63464 -9.25105 0.01500
-8.01908 -17.43235 0.09238
-13.53096 -11.48663 0.10796
-4.25585 -16.64701 0.00000
-3.01886 -16.99661 0.01500
-10.84596 -9.95056 0.04100
-9.50521 -8.41247 0.01500
-8.43096 -8.90852 0.00639
-0.05698 -15.20153 0.06901
-11.63096 -13.76583 0.30579
-7.70034 -15.98073 0.03000
-0.01596 -17.48601 0.01817
-9.58096 -13.17985 0.17909
-8.03102 -15.26731 0.03000
-10.21213 -14.65596 0.28500
-1.21051 -16.10403 0.09871
-10.71714 -12.42695 0.13500
-4.40686 -16.07231 0.00000
-1.46954 -16.75601 0.25531
-4.48309 -8.54474 0.01500
-0.74356 -16.36714 0.04515
-2.44596 -15.97217 1.10373
-1.54237 -17.30606 0.00000
-9.50135 -8.84652 0.01500
-2.91115 -8.95735 0.43488
0.35785 -9.03342 0.00000
0.01274 -9.08159 0.00000
2.28640 -15.03235 0.13893
-1.40566 -14.99735 0.80013
-10.77498 -14.23287 0.30000
-5.19884 -10.06927 0.00000
-5.12857 -15.69728 0.00000
-10.48835 -13.32784 0.40500
-10.83096 -8.38350 0.36110
-2.08914 -14.99735 0.24460
-11.31409 -13.66109 0.42000
-13.13096 -13.31029 0.04083
-7.55834 -7.76271 0.11500
-1.06143 -9.77365 0.11516
-2.05142 -16.11706 0.13200
-5.55396 -15.04726 0.11500
-1.98757 -16.80533 0.15859
-6.84658 -15.01735 0.24721
-12.43917 -13.59485 0.01734
-2.32994 -9.67379 0.13214
-9.75506 -9.44288 0.15000
-8.43096 -9.84738 0.45919
-10.45418 -7.74235 0.39014
-8.92359 -17.23855 0.03000
-0.75408 -9.26069 0.13370
-0.00096 -16.94261 1.09945
-1.07694 -16.79912 0.16392
2.09036 -8.97235 0.08112
-6.58440 -8.57085 0.01500
-7.24102 -9.77643 0.01500
-6.66695 -10.10735 0.06950
-2.46096 -15.47110 0.64937
-8.75349 -12.43661 0.15000
-10.03774 -13.00582 0.15000
-1.17581 -10.10473 0.01092
-7.10975 -9.00735 0.03343
-10.32832 -13.85872 0.30000
-8.21337 -15.98104 0.01500
-6.12399 -9.86105 0.01500
-9.12243 -12.16775 0.27000
-9.37387 -11.66232 0.13500
-8.12925 -7.74235 0.18153
-10.27154 -12.63868 0.01500
-1.59916 -9.36109 0.00000
-8.65287 -17.43235 0.48955
-8.38096 -16.46384 0.10626
-8.70180 -8.92398 0.11500
-0.51744 -15.57209 0.00000
-0.66494 -9.68723 0.13960
-0.06765 -17.46235 0.51539
-1.96511 -8.19977 0.11948
-2.03771 -10.17235 0.35891
-11.33096 -11.98184 0.05434
-2.31489 -9.57235 0.00928
-0.61805 -9.83272 0.00724
-5.30384 -9.39338 0.01500
-7.89629 -15.01735 0.48025
-9.05250 -12.48736 0.06557
-9.82089 -15.84111 0.15000
-2.46355 -17.26655 0.00000
-3.39133 -16.90037 0.11509
-8.89036 -13.17269 0.13500
-3.25139 -7.82135 0.07539
-1.39443 -15.53534 0.01821
-9.56020 -17.43235 0.27360
-13.55006 -13.40172 0.36000
-4.74942 -16.24735 0.40412
-6.03096 -8.05053 0.16629
-10.00830 -13.80235 0.46657
-8.43096 -15.29292 0.21932
-2.71383 -17.14343 0.01500
-10.35073 -16.57177 0.01500
0.27580 -15.79578 0.10805
-10.49444 -14.12814 0.28500
-11.53096 -13.38617 0.17896
-9.31650 -12.08159 0.30000
-7.82089 -15.67146 0.01500
-4.26717 -15.68008 0.03000
1.86829 -10.17235 0.37018
-13.01529 -13.39135 0.10000
-0.71792 -16.31625 0.11651
1.49052 -9.65766 0.08872
-12.53096 -11.45653 0.00039
-8.96741 -13.22803 0.18000
-13.33096 -13.43630 0.18179
0.84952 -15.76870 0.15201
-2.22547 -15.03235 0.22536
-11.43261 -12.12508 0.00000
-9.91596 -14.83742 0.31544
-8.11126 -7.80735 0.07743
2.13410 -15.79132 0.01500
-1.89526 -8.62238 0.11361
-10.97494 -13.86852 0.31500
-2.41596 -10.11175 0.07369
-1.94505 -9.08614 0.05756
-10.53017 -16.71857 0.00000
-13.87292 -11.75212 0.14405
-0.87410 -15.43533 0.10665
-5.18107 -15.00235 0.07083
-10.84596 -16.09079 0.31125
-0.74357 -17.29050 0.24303
-2.08609 -16.94078 0.15536
-4.62988 -15.63470 0.03000
-9.94754 -10.50964 0.15000
-10.60252 -8.90874 0.00000
-6.27260 -8.16988 0.01500
-10.78716 -13.92931 0.28500
-4.14209 -10.17235 0.35168
-7.05706 -15.28648 0.03000
-5.34775 -9.24041 0.01500
-1.26090 -10.06637 0.00000
-9.84846 -8.94408 0.11500
-8.72774 -13.48474 0.15000
-11.85714 -11.89485 0.09845
-11.01451 -14.29032 0.13500
-7.78506 -16.60991 0.01500
-13.73096 -13.42522 0.02781
-0.23067 -16.08926 0.08210
-11.13096 -11.31321 0.24469
-6.01596 -16.22651 0.21196
-9.60632 -12.39866 0.28500
-7.63932 -7.75735 0.13735
-10.83096 -10.04037 0.56156
-3.64285 -16.21735 0.54937
-0.41654 -9.10772 0.02907
-0.80856 -7.88862 0.01500
-10.81511 -12.81800 0.43500
-9.74621 -11.61586 0.30000
-9.51060 -13.81735 0.52358
-5.09966 -16.05097 0.01500
-2.24815 -15.43533 0.27148
-2.07706 -15.60133 0.17451
-0.01596 -17.21653 0.28831
-1.83385 -17.42276 0.07623
-10.71346 -14.58319 0.28500
0.79282 -16.08285 0.11517
-1.06411 -15.75995 0.27091
-6.15857 -16.62802 0.01500
-0.39062 -16.47848 0.22101
-10.17206 -8.90735 0.08785
-9.30243 -8.44034 0.11500
-10.68379 -11.07526 0.30000
-0.45494 -8.19147 0.07648
-0.79908 -7.75735 0.05576
-10.62927 -7.75735 0.21065
-0.28729 -16.75436 0.20201
-9.72068 -9.68193 0.13500
-7.56034 -15.95292 0.00000
-9.78132 -9.25300 0.13500
-10.68173 -15.24405 0.13500
-2.21594 -8.40497 0.07632
-8.03314 -15.45579 0.01500
-7.38214 -15.30021 0.03000
-1.05769 -8.23927 0.00000
-3.07719 -17.39803 0.02510
-11.76042 -13.80985 0.39346
-9.61958 -12.70913 0.13500
1.73862 -9.42492 0.00000
-2.35818 -7.74235 0.53652
-0.03097 -15.57178 0.04410
-4.64419 -17.38232 0.00000
-5.48200 -8.96372 0.01500
-8.24171 -15.71956 0.01500
-7.11711 -16.02055 0.01500
-9.77543 -8.21862 0.00000
-1.00809 -16.42263 0.27286
-10.26467 -9.15126 0.16500
-0.95594 -15.03235 0.17238
-11.98943 -13.29194 0.09642
-0.46501 -15.04735 0.11851
-8.01434 -16.50395 0.05986
-5.25390 -8.99656 0.11500
-7.33413 -8.42516 0.14688
-7.74925 -15.03030 0.01500
-10.84596 -16.18502 0.56757
-9.94596 -8.03119 0.12683
-7.83174 -10.12235 0.02296
-5.47232 -16.21735 0.45057
-8.44597 -9.44481 0.07893
-11.14104 -14.67614 0.75000
-7.53210 -8.10860 0.21500
-8.53434 -16.88135 0.01500
-3.68794 -10.12994 0.11500
-6.13586 -16.11605 0.06619
-10.42050 -12.32571 0.27000
-9.87738 -15.21485 0.15000
-10.83096 -8.40561 0.31160
0.97510 -8.97235 0.08464
-0.14413 -8.33793 0.16389
-8.82269 -8.08036 0.00000
-6.68096 -8.40977 0.15940
-4.28524 -8.51004 0.00000
-0.49738 -10.18735 0.10325
-9.50327 -16.68615 0.01500
-12.11543 -12.02092 0.00000
-8.44596 -15.93220 0.30050
-1.77463 -15.04735 0.10769
-3.40631 -16.48514 0.01500
-4.80096 -8.47670 0.17455
-9.63723 -15.96014 0.13500
-1.44209 -15.88302 0.00000
-9.16738 -12.60235 0.14235
-6.44623 -16.41435 0.01500
-2.16608 -8.90735 0.07183
-10.52725 -8.09716 0.01500
-7.38258 -16.66431 0.01500
-11.18683 -12.30754 0.13500
-9.93166 -12.53971 0.30000
-5.49647 -9.09706 0.00000
-3.94818 -7.82512 0.03425
-2.13881 -7.83109 0.07294
-0.41694 -16.01685 0.15859
-13.11126 -11.58954 0.18000
-0.83973 -16.10521 0.06456
-9.61197 -12.62618 0.28500
-9.70456 -17.44735 0.17108
-4.32598 -15.88923 0.01500
-2.40195 -15.55207 0.00000
-10.23097 -12.61175 0.25919
-10.83096 -10.14556 0.18014
-0.79854 -16.47287 0.00000
-4.64921 -8.34427 0.01500
-2.00494 -8.58617 0.07839
-7.97394 -12.03864 0.16500
-9.03340 -17.44735 0.54111
-1.94020 -8.99660 0.00000
-3.74676 -10.17235 0.11658
0.61903 -9.24649 0.03497
-8.99960 -12.97769 0.13500
-0.78008 -16.30889 0.00000
-7.28803 -15.62760 0.01500
-1.76284 -9.50735 0.05572
-3.61596 -15.35912 0.53345
-2.16713 -17.03941 0.01500
-4.83096 -16.29281 0.57540
-3.61596 -9.21713 0.36971
-4.10867 -17.46235 0.26891
-7.61345 -17.43235 0.26171
-7.74391 -15.93693 0.03000
1.39480 -9.14385 0.03251
-8.27335 -17.08732 0.01500
-8.69407 -11.80168 0.16500
-10.75287 -11.18581 0.27000
-6.01596 -8.17797 0.15449
-8.81733 -13.72110 0.16500
-9.63096 -15.15361 0.18354
-4.80096 -8.90792 0.47272
-0.92870 -16.08926 0.18440
-9.84725 -9.31974 0.15000
-0.00096 -16.47040 0.62719
-9.93096 -10.45285 0.66662
1.16876 -10.18735 0.12425
-0.32326 -8.32502 0.17596
-13.65804 -13.79485 0.27361
-9.45476 -11.38735 0.59558
-7.93721 -12.11528 0.16500
-2.43096 -16.12875 0.32661
0.20005 -16.26235 0.19471
-1.80715 -15.04735 0.31130
1.11898 -9.85092 0.00000
-7.32839 -7.75735 0.46037
-11.01151 -12.73270 0.27000
-6.15245 -8.95735 0.12410
-7.87682 -13.81735 0.36363
-12.00620 -11.37985 0.02589
-6.08766 -15.25250 0.00000
-8.43096 -16.22702 0.51445
-1.73197 -16.47845 0.16180
-4.22452 -15.06823 0.00000
-0.77409 -9.58735 0.06414
-9.94243 -9.25463 0.15000
-6.37796 -16.56028 0.13000
-7.99798 -11.92738 0.15000
-4.46279 -15.47249 0.01500
-1.61362 -8.58235 0.11853
-13.33096 -13.52449 0.23498
-13.82802 -11.49485 0.06484
-2.11711 -10.18735 0.40759
-7.07736 -10.10735 0.09935
-7.10974 -15.00235 0.18152
-9.32710 -8.54368 0.00000
0.93310 -8.97235 0.04229
-9.61596 -10.13349 0.12950
0.98552 -9.94361 0.00000
-1.31652 -16.72785 0.00000
-10.67210 -12.64810 0.28500
-9.98697 -12.14265 0.15000
-0.00097 -8.68796 0.05309
-3.63096 -15.67510 0.18473
-1.83661 -8.90620 0.03756
-8.68333 -13.10554 0.16500
-5.26337 -15.39008 0.01500
-10.54356 -12.42837 0.13500
-8.77718 -8.95823 0.61500
-0.99188 -16.83350 0.00000
0.20234 -15.37484 0.00000
-5.74213 -15.01735 0.07490
-13.53096 -11.85139 0.19504
-0.93285 -9.87970 0.00000
-10.23097 -12.01593 0.22583
-0.58453 -16.41622 0.09208
1.53531 -9.05329 0.05698
-11.95341 -13.17024 0.00000
0.71803 -15.39860 0.15536
-10.62157 -11.39964 0.42000
-8.01838 -11.53791 0.16500
-1.05151 -15.94034 0.19597
-7.43459 -16.54294 0.01500
-9.73121 -15.12669 0.22250
-1.24461 -15.93549 0.00000
-6.03096 -16.65078 0.43657
-2.18996 -15.49787 0.28427
-8.90993 -13.75235 0.28779
-1.71997 -10.12235 0.03913
-9.29058 -13.27215 0.13500
-2.35252 -16.08285 0.23893
-1.51950 -16.09566 0.01660
-5.18908 -9.86712 0.01500
-7.31675 -7.80735 0.13391
-11.62974 -13.39194 0.05352
-13.38905 -12.09485 0.03870
-9.07476 -8.46670 0.00000
-8.50840 -11.99942 0.16500
-10.23097 -13.79012 0.30952
-0.01596 -17.09764 0.29871
-1.26362 -17.28769 0.15859
-2.38096 -16.81756 0.07801
2.38404 -16.02291 0.05678
0.79792 -15.66340 0.15859
-10.73584 -15.84063 0.16500
-8.48886 -8.44017 0.01500
-1.13971 -16.11328 0.00000
-6.75387 -10.17235 0.61085
-9.50959 -11.75048 0.27000
-4.35610 -9.27719 0.01500
-13.51747 -13.49194 0.11732
-10.27515 -11.82156 0.42000
-2.05142 -16.79615 0.13290
-9.07483 -8.95735 0.56717
-4.83096 -16.88219 0.43459
-2.46530 -16.83665 0.11500
-9.61596 -16.02616 0.35475
-7.55667 -15.15852 0.01500
-7.81759 -15.78591 0.01500
-10.14614 -13.82062 0.28500
-1.69811 -10.18735 0.37828
-10.42219 -14.38609 0.28500
-0.60882 -15.04735 0.09460
-10.65499 -8.01358 0.01500
-7.88191 -13.25235 0.08877
1.44956 -10.18735 0.31792
-10.38949 -8.07317 0.01500
-2.83951 -8.19789 0.11861
-13.53096 -13.19843 0.18250
-0.00096 -17.01659 0.17014
-3.34259 -8.21901 0.00000
-4.08069 -10.17235 0.52151
-6.06979 -16.56036 0.11500
-9.62680 -9.72030 0.01500
-13.03096 -11.81603 0.03366
-8.72996 -12.94419 0.15000
-8.68777 -8.41928 0.11500
-10.24873 -10.17235 0.09695
-10.78096 -16.91648 0.09521
0.61698 -9.69358 0.00000
-9.54114 -16.21735 0.37662
-8.97703 -11.66231 0.15000
-0.12988 -9.02235 0.08394
-3.40415 -16.85862 0.04851
-7.18590 -16.91934 0.00000
-7.60706 -9.59168 0.00000
-10.47098 -12.64844 0.40500
-2.50923 -16.26969 0.01500
-7.84072 -9.32577 0.00000
-13.03096 -12.15711 0.16933
-7.32670 -7.86773 0.12158
-7.03652 -15.68307 0.01500
0.01403 -8.61646 0.45034
-11.14596 -14.90274 0.59111
-1.02547 -15.77512 0.22472
-2.75597 -8.23834 0.09556
0.46923 -9.95537 0.05871
-7.28648 -15.72880 0.01500
-6.65800 -15.73533 0.05009
-9.63096 -15.12192 0.17272
-9.32233 -8.95735 0.34005
-10.79045 -16.28247 0.01500
-5.94977 -15.00235 0.43824
-2.35096 -10.03995 0.07397
-11.87791 -11.59485 0.14571
-0.00096 -16.35242 0.53250
-2.97424 -17.46235 0.33373
-2.07926 -17.13507 0.00000
-10.57089 -9.82361 0.15000
-8.03295 -17.43235 0.06187
-5.57865 -15.00235 0.03143
-0.37515 -17.52735 1.01950
-3.62858 -16.24735 0.29598
0.52602 -15.18256 0.00000
-1.34394 -9.50170 0.12204
-9.01253 -12.58735 0.29030
-7.16761 -15.45658 0.01500
-9.00636 -12.50202 0.28800
-1.57967 -14.99735 0.42927
-9.03985 -7.88757 0.00000
-9.01301 -11.95732 0.28289
-11.93096 -12.95109 0.01386
-13.00269 -12.79194 0.05817
-0.29361 -8.89230 0.08111
-7.76608 -8.62925 0.01500
-7.10742 -9.20967 0.11500
-7.70746 -15.49772 0.01500
-10.05770 -7.80735 0.14388
-1.65299 -14.99735 0.55760
-4.81596 -7.98300 0.13268
-2.32382 -16.24735 0.51478
-13.44785 -12.42113 0.05000
-10.33827 -13.56153 0.42000
-6.64270 -16.44698 0.00000
-5.01877 -15.20537 0.03000
-10.59725 -15.58741 0.13500
-8.28745 -17.18334 0.01500
-11.48709 -13.49194 0.28371
-9.97207 -11.25119 0.15000
-6.58946 -8.93096 0.11500
1.98344 -9.82216 0.00000
1.95847 -10.17235 0.27296
-6.03096 -17.05352 0.01854
-6.66363 -9.02235 0.04707
-12.76968 -12.39485 0.00368
-11.06212 -13.41462 0.13500
-6.85941 -15.02323 0.00000
-10.83096 -16.90062 0.31307
1.05744 -9.22025 0.08252
-11.26475 -13.63599 0.40500
-1.04253 -17.08297 0.23292
-1.09393 -8.86130 0.01500
-6.22345 -15.63631 0.01500
0.91451 -15.67025 0.01500
1.25745 -9.82853 0.09470
-11.95450 -12.48681 0.00000
-10.83096 -8.40366 0.03801
-10.16877 -13.77571 0.15000
-3.63097 -8.05250 0.04618
-7.07951 -17.34504 0.01500
-4.81773 -16.96721 0.01500
-10.80209 -10.38775 0.15000
-0.22774 -8.48470 0.06346
-13.33096 -13.67264 0.19912
-6.04060 -15.30170 0.01500
-3.06272 -16.26235 0.05068
-6.62416 -9.97330 0.01500
-3.79274 -8.64375 0.01500
-0.71687 -15.75588 0.10443
-2.13794 -14.98235 0.83641
-7.36043 -9.81733 0.00000
-11.55604 -13.09194 0.05101
-9.89717 -15.75759 0.15000
-10.17520 -13.01404 0.15000
-2.76232 -17.41563 0.00000
-11.38789 -12.00595 0.28500
-10.27169 -10.16409 0.13500
-1.06732 -16.57025 0.29101
-0.75661 -7.91589 0.14855
-1.03880 -8.13440 0.01500
-11.33829 -12.58736 0.29862
-8.17878 -11.92139 0.16500
-4.61544 -15.06735 0.09484
-8.08696 -8.73596 0.01500
0.79748 -15.76870 0.05802
-2.44596 -15.94970 0.09719
-0.27990 -8.35358 0.18320
0.83040 -16.20130 0.00000
-2.44596 -16.23431 0.36188
-8.38576 -11.38735 0.60194
-7.83984 -9.64975 0.01500
-11.83096 -12.15788 0.05737
-12.19083 -11.64943 0.18000
-9.64940 -11.83115 0.15000
-0.79322 -10.18735 0.47400
-9.70285 -15.77600 0.16500
-0.41953 -8.43234 0.09932
-10.83096 -15.88244 0.11687
-6.03096 -16.95106 0.12542
-7.23401 -15.01735 0.20339
-11.13096 -10.29014 0.71660
-11.07410 -14.01874 0.15000
-1.05529 -9.32869 0.06852
-2.05783 -15.86556 0.23261
-1.02755 -17.54235 0.05066
-2.73386 -16.26235 0.48060
-8.56095 -11.38735 0.20391
-9.02771 -16.56395 0.01500
-7.63256 -16.23235 0.00645
-12.46569 -11.51352 0.05000
-2.39210 -8.80985 0.01500
-8.57320 -12.58735 0.15689
0.08918 -10.14560 0.01500
-3.63096 -9.01076 0.05993
-6.04414 -9.48613 0.00000
-0.72753 -17.42472 0.28232
-13.73096 -11.63686 0.22266
-13.83096 -11.41389 0.42652
-12.03748 -13.79485 0.40422
-6.06203 -16.23252 0.01500
0.21472 -8.95735 0.52937
-13.65374 -11.69485 0.16404
-11.98398 -12.19485 0.09644
-3.68681 -8.88669 0.04445
-3.25194 -7.82135 0.06660
-2.13003 -15.98450 0.28427
-2.46096 -15.21997 0.49654
-5.98096 -9.19519 0.08671
-4.57545 -16.26235 0.00775
-5.63547 -16.16735 0.03817
-2.92037 -8.61384 0.13383
-4.87420 -8.95735 0.35225
-9.91061 -17.44735 0.33808
-11.10917 -11.64504 0.28500
-2.21396 -16.24735 0.10729
-2.34328 -16.43545 0.09878
-6.38868 -7.82085 0.01500
-6.63215 -8.67245 0.01500
-3.88597 -8.58060 0.08229
-6.61065 -8.97235 0.03417
-5.07890 -9.40732 0.11500
-9.60660 -8.54684 0.01500
-9.47755 -13.11063 0.30000
-12.03096 -11.88368 0.14336
-8.62838 -11.86415 0.15000
-13.79231 -11.37985 0.39921
-10.75443 -13.86120 0.13500
2.41404 -9.05492 0.37791
-4.36001 -10.17235 0.05435
-6.88543 -15.42728 0.01500
-2.53097 -8.20308 0.09474
-6.98861 -16.57697 0.00000
-9.82123 -17.03756 0.01500
-6.64794 -8.56508 0.21500
-12.12115 -11.89485 0.10675
-4.62245 -15.73780 0.01500
-10.67989 -14.87556 0.27000
-0.73715 -15.56941 0.05419
1.10721 -10.18735 0.02917
-1.40390 -16.75315 0.28930
-11.03259 -13.35931 0.13500
-1.34244 -9.19125 0.00000
-8.38096 -8.78984 0.06843
-6.00409 -9.27891 0.01500
2.39904 -10.09979 0.13274
-1.40390 -16.45415 0.18509
-8.33450 -16.19735 0.01500
-6.01596 -16.80297 0.41433
-9.03696 -11.66246 0.15000
-7.77126 -9.33521 0.00000
-0.40406 -15.49743 0.11689
-3.06682 -17.47735 0.09681
-6.59728 -15.00235 0.39390
-8.13373 -12.60235 0.53853
-10.34831 -16.16090 0.16500
-3.63598 -15.38042 0.01500
-0.95970 -16.53792 0.00000
-8.59750 -11.38735 0.14932
-13.19330 -11.39485 0.17056
-2.05783 -15.10404 0.12807
-2.25096 -8.96229 0.18994
-2.07706 -17.40756 0.12142
-9.68277 -13.80235 0.67267
-9.21553 -8.83569 0.01500
-10.34568 -10.18135 0.30000
1.00394 -10.17235 0.22931
-13.43096 -12.28216 0.01816
-10.40381 -11.46463 0.15000
-13.59359 -11.69485 0.24238
-8.86011 -8.11672 0.01500
-4.11705 -9.84280 0.00000
-0.80720 -15.27651 0.15536
-13.73829 -11.59694 1.38259
0.63637 -15.77512 0.13062
-6.08735 -16.23773 0.01500
-10.07388 -13.80133 0.27000
-6.54877 -16.57010 0.00000
-6.41255 -16.29089 0.01500
-8.18233 -16.47738 0.07829
-2.13406 -15.82482 0.01500
-10.28775 -16.00035 0.15000
-9.98623 -16.23363 0.03000
-2.00758 -10.17235 0.05147
-7.24563 -16.14401 0.01500
-4.23087 -16.46202 0.01500
-10.93153 -11.28053 0.35307
1.40815 -15.03235 0.39971
-1.36698 -7.94024 0.07286
-0.31294 -7.91060 0.06492
-10.33877 -14.57128 0.28500
-9.40600 -12.46900 0.30000
0.57944 -10.17235 0.12073
-12.61380 -13.45639 0.00000
-6.19182 -17.43235 0.08291
-10.72669 -13.16627 0.42000
-9.91773 -13.48003 0.30000
-9.47288 -13.09430 0.13500
-0.82379 -8.27576 0.01500
-6.86960 -7.74235 0.02915
-2.01342 -16.44186 0.13643
-10.84596 -9.38671 0.47233
1.15503 -9.38951 0.08032
2.14031 -15.10935 0.01500
-7.38660 -16.51300 0.01500
-2.81371 -8.38364 0.03796
-10.25432 -8.83233 0.00000
-2.20969 -15.03235 0.45175
-1.49508 -7.82172 0.00000
-2.11520 -17.46235 0.12663
2.39904 -9.11220 0.03211
-11.86661 -13.60306 0.27000
-9.90059 -15.08500 0.18000
0.90087 -15.76653 0.04053
-8.75863 -17.43235 0.04675
-10.12324 -12.92490 0.13500
-1.93308 -8.12821 0.01500
-8.75289 -11.87782 0.16500
-2.43096 -16.47782 0.11397
-11.87670 -11.89485 0.10371
-10.27309 -7.80735 0.06145
-6.03096 -16.69163 0.08144
-3.66655 -16.21735 0.08903
-1.05770 -15.86798 0.28210
-14.33768 -12.44181 0.01952
-7.26735 -7.80838 0.15446
-10.03703 -12.60235 0.43933
-10.80036 -12.33935 0.40500
-3.61596 -9.27146 0.52488
-6.01858 -15.00235 0.51474
-10.83096 -15.21444 0.03514
-1.72445 -16.11548 0.16984
-9.15795 -8.50949 0.01500
-4.76572 -10.17235 0.38270
-0.00097 -8.08051 0.21884
-0.39737 -17.24755 0.29172
2.21607 -10.03020 0.04704
-11.26142 -11.60195 0.27000
1.83855 -15.04735 0.06805
-2.72402 -17.16408 0.07153
-3.61596 -15.57739 0.49679
-1.44921 -9.86820 0.06495
1.14575 -9.97545 0.03573
-3.59304 -16.60971 0.00000
-10.96927 -12.65544 0.27000
-9.08161 -12.61435 0.28500
-6.14467 -8.25557 0.01500
-1.33057 -16.74960 0.10891
-11.08766 -14.18382 0.15000
-8.30516 -13.80235 0.19602
-1.81145 -9.57235 0.06601
-10.74123 -8.21476 0.01500
-0.00097 -8.61559 0.54165
-0.99503 -8.07282 0.08467
-6.55807 -10.18735 0.36147
-7.84761 -16.82123 0.01500
-10.02050 -9.39759 0.15000
-0.05887 -16.31235 0.41133
-6.64283 -17.43235 0.30445
-13.66117 -13.12576 0.00000
-10.30385 -11.87987 0.27000
-11.69990 -13.69194 0.16546
-8.74864 -17.44735 0.20880
-4.40922 -8.10312 0.00000
-10.83096 -8.81981 0.15332
-11.14596 -10.87345 0.24694
-8.96471 -13.11528 0.15000
-3.57564 -17.27496 0.01500
-10.61672 -11.05922 0.27000
-2.92308 -17.41235 0.07709
-10.07007 -10.99253 0.15000
-1.22994 -10.00007 0.03869
-4.88091 -16.21735 0.13010
-8.31811 -9.31737 0.00000
-1.71274 -9.15795 0.05806
-4.77002 -7.75735 0.50935
-1.89353 -16.92698 0.15859
-2.40819 -16.24735 0.17620
-0.62960 -15.59725 0.01500
-2.28157 -7.75735 0.11176
-2.13676 -9.67681 0.14111
-13.43096 -13.16262 0.13304
-9.61596 -9.75334 0.11285
-7.56525 -8.71463 0.11500
-9.66706 -12.55469 0.28500
-8.43096 -15.87414 0.45532
0.70749 -15.10196 0.15560
-6.12648 -15.78374 0.03000
-7.90662 -13.25235 0.02187
-5.45596 -9.82522 0.18293
-8.13983 -16.12169 0.03000
-4.31712 -9.54588 0.11500
-5.61607 -10.10735 0.01755
0.42515 -10.17235 0.18826
-3.47513 -17.08369 0.09170
-4.17200 -10.01878 0.00000
-10.83096 -8.17342 0.53144
-9.24460 -7.74235 0.27019
-8.44776 -12.32994 0.15000
-10.96506 -13.88898 0.30000
-1.79494 -8.09778 0.04552
-8.38096 -13.21180 0.08434
-0.72675 -7.74235 0.05073
-10.26835 -8.61816 0.00000
-0.55436 -8.90735 0.04311
-6.88524 -16.82706 0.03000
-4.61696 -8.37695 0.02970
-2.49703 -16.71187 0.15536
-11.39449 -12.91734 0.28500
-8.93380 -7.96089 0.00000
0.92399 -9.59136 0.00000
-11.14596 -10.54690 0.41060
-11.20356 -11.46839 0.42000
-5.11930 -15.29569 0.00000
-10.56999 -11.88032 0.28500
-0.05315 -15.07361 0.01500
-9.76831 -16.78506 0.00000
1.26835 -9.26557 0.05275
-1.10563 -15.04735 0.32048
-10.26480 -11.65564 0.13500
-11.13422 -11.57559 0.42000
-8.96987 -13.80235 0.45585
-12.82720 -12.71270 0.05000
-9.82674 -16.83335 0.01500
-10.57834 -16.32828 0.01500
-1.77994 -9.63708 0.07794
-4.78667 -8.95735 0.17903
-0.43478 -17.54235 1.01066
-10.21425 -15.62343 0.15000
-2.12324 -8.29187 0.09264
-6.80464 -9.37180 0.01500
-12.09654 -13.79194 0.07336
-11.31996 -13.28568 0.43500
1.41833 -15.32222 0.01500
-0.37832 -9.52047 0.13967
-13.13096 -11.84143 0.09574
-4.28050 -7.82135 0.08870
-5.83658 -10.12235 0.17843
-8.99288 -11.92316 0.15000
-6.38379 -15.01171 0.61500
-10.88529 -10.59671 0.27000
-10.05166 -17.38235 0.05397
1.62255 -15.70193 0.01500
-8.38660 -8.97235 0.46382
0.18455 -8.97235 0.51189
-0.80243 -9.29543 0.06898
-8.38631 -11.75331 0.15000
-3.06806 -16.26235 0.49400
-4.39576 -17.35868 0.01500
-0.72433 -16.63595 0.26927
-0.69494 -8.24162 0.11731
-1.24939 -16.91856 0.28750
-5.88939 -10.18735 0.31094
-11.16818 -13.44637 0.27000
-5.31343 -16.21735 0.02271
0.77951 -15.58027 0.15536
-9.12093 -12.68765 0.28500
-10.20185 -8.50781 0.11500
-8.23649 -16.74916 0.00000
-0.13203 -17.14753 0.15536
-9.64852 -11.67745 0.27000
-8.80053 -7.75735 0.07021
-13.23096 -13.39592 0.05821
-8.38846 -13.21457 0.01500
-10.57940 -13.83824 0.28500
-10.76496 -16.42437 0.03000
-11.63705 -11.44358 0.62719
-0.57635 -17.46235 0.08716
-11.89106 -11.59485 0.01569
-0.24322 -10.10835 0.02504
-10.04316 -13.06222 0.28500
-8.43096 -8.02744 0.05991
-3.47215 -16.77340 0.01500
-7.71661 -15.01735 0.19888
-1.29970 -15.76865 0.01500
-0.21062 -16.79429 0.00000
-0.21527 -7.75735 0.17441
-0.48788 -17.18787 0.01500
-7.99370 -17.13396 0.01500
-8.33255 -11.98721 0.15000
-6.01596 -17.30773 0.52586
-8.51128 -12.96767 0.15000
-4.41638 -16.27279 0.11500
-1.21594 -9.59299 0.04168
-4.85941 -16.23235 0.48881
-8.59888 -8.39968 0.00000
-0.00097 -8.73942 0.10061
-9.67391 -13.79670 0.27000
-8.57850 -16.94569 0.01500
-6.76486 -15.65450 0.00000
-1.68370 -16.48571 0.28750
-4.40378 -9.38965 0.00000
-2.56962 -7.75735 0.18386
-9.11245 -12.56801 0.13500
0.01990 -10.18735 0.24376
-0.41019 -17.32123 0.06968
-1.56932 -9.30722 0.09806
-9.07369 -13.76440 0.30000
-12.70558 -12.26214 0.05000
-0.40378 -17.20013 0.16701
-10.78360 -11.01615 0.27000
-8.33285 -16.21735 0.31383
-10.97312 -12.04970 0.42000
-8.15322 -13.63889 0.16500
-10.71358 -13.02324 0.15000
-2.31418 -16.58453 0.01500
-2.61421 -16.26835 0.01500
-2.14376 -14.98235 0.18486
-10.84032 -14.15440 0.27000
-7.80386 -17.10142 0.01500
-6.72086 -8.61280 0.01500
-7.03609 -16.23241 0.01500
-6.83790 -10.17235 0.08256
-10.68310 -11.06640 0.27000
-13.53096 -11.76171 0.05474
-7.88301 -8.73526 0.01500
-0.96482 -8.37280 0.11319
-9.37139 -11.70432 0.28500
-7.27336 -17.38777 0.01500
-6.45582 -16.40916 0.00000
-7.48591 -8.98066 0.11500
0.81417 -15.26752 0.15536
-11.53096 -13.00376 0.03725
-4.77107 -17.47735 0.38971
-2.96399 -8.35735 0.07109
-10.73936 -9.07210 0.15000
0.52309 -15.04735 0.39724
-8.57840 -12.60235 0.53014
-10.90609 -12.05228 0.15000
-13.23587 -12.19485 0.10169
-10.84596 -7.90943 0.34939
-6.73874 -8.31506 0.11500
-0.58188 -17.54235 1.15877
0.63802 -15.76649 0.03133
-0.03284 -15.03235 0.18814
-6.93510 -16.61457 0.03000
-13.53096 -13.75814 0.17924
-5.53886 -15.01735 0.38155
-5.26903 -9.00220 0.11500
-11.52985 -12.36483 0.00000
-9.64395 -8.83948 0.21500
2.19563 -10.05926 0.00000
-8.96290 -12.75953 0.18000
-2.41596 -9.47550 0.25796
-3.39524 -8.95735 0.03651
-9.63189 -13.80235 0.53428
-4.66812 -8.95735 0.06582
-2.46163 -17.10994 0.11500
0.72642 -10.17235 0.18864
-4.45742 -7.75735 0.36316
-7.76356 -10.12235 0.06192
-5.05580 -10.17235 0.15896
-11.31452 -11.93254 0.42000
-9.09895 -13.25235 0.06133
-12.94845 -12.39485 0.05471
-9.59811 -11.71138 0.30000
-2.13085 -15.75588 0.22530
-4.53497 -8.43101 0.01500
-10.83096 -9.38210 0.05451
-1.64648 -15.99893 0.15536
-4.84596 -17.03915 0.17598
0.33397 -8.97235 0.33071
2.41404 -9.00720 0.38407
-13.73096 -13.39914 0.12467
-1.62542 -10.18735 0.07707
0.98165 -15.22596 0.01500
-10.15170 -12.29750 0.33997
-13.33096 -11.47956 0.13342
-9.66542 -12.79749 0.30000
1.41553 -9.44274 0.00000
-9.30961 -8.41551 0.21500
-3.99627 -15.99707 0.05960
-11.13096 -13.97702 0.66818
-9.71648 -17.38299 0.01500
-9.94846 -14.01735 0.63145
-6.01596 -16.66995 0.23793
-1.23279 -10.17235 0.52790
-8.35825 -9.94318 0.01500
-0.31279 -16.77919 0.01500
1.96907 -10.02033 0.01500
-9.99365 -10.44639 0.15000
-9.65339 -16.88583 0.03000
-9.82767 -8.73831 0.01500
-6.75161 -9.00690 0.21500
-8.18132 -17.43235 0.44892
-3.82956 -15.84776 0.01500
-9.91596 -10.98235 0.57511
-6.75251 -9.60855 0.19663
-4.93601 -16.21735 0.07283
-10.65230 -13.84089 0.28500
-7.34560 -8.95735 0.05456
-6.06760 -15.00235 0.23178
-7.83307 -15.20064 0.00000
-2.44596 -16.19319 0.73115
-8.35095 -11.57949 0.16500
-9.82930 -17.04930 0.01500
-5.19683 -15.06735 0.10183
-8.37435 -8.46063 0.01500
0.32337 -10.17235 0.33208
-5.08175 -16.21735 0.23391
-10.73659 -10.94883 0.15000
-1.55589 -16.67720 0.28720
-8.48096 -16.47229 0.11446
1.54814 -15.36460 0.01500
1.50937 -15.81891 0.00000
-9.31596 -8.38334 0.18395
-8.80453 -7.74235 0.19984
-8.24780 -8.08599 0.11500
-9.93096 -10.18130 0.37816
-6.04385 -10.02882 0.01500
-3.39701 -16.80457 0.11689
-2.01320 -9.11680 0.09107
-9.17985 -12.18450 0.28500
-11.14596 -11.18187 0.26891
-0.61564 -16.14665 0.28608
-11.28789 -13.74157 0.13500
-5.20367 -15.00235 0.55376
2.26022 -9.48489 0.13589
-9.89508 -16.85519 0.01500
-5.96718 -10.17235 0.59527
-9.50940 -12.15758 0.27000
-0.47000 -8.64521 0.11285
-7.11466 -8.20569 0.19342
-4.68953 -7.75735 0.13983
-9.98547 -14.63939 0.27000
-1.73728 -16.23452 0.18978
-5.20890 -15.53671 0.11633
-10.67344 -10.78109 0.28500
-12.62610 -11.99486 0.04173
-9.52992 -12.42824 0.27000
-1.13243 -15.63041 0.01500
-11.53096 -13.48230 0.12834
-7.92668 -8.39681 0.11500
-0.07682 -16.79557 0.21237
-4.73862 -15.20168 0.01500
-1.11106 -15.75588 0.04741
-5.38867 -9.35691 0.00000
-4.19073 -7.82441 0.01500
-9.63096 -9.97223 0.58751
-11.73364 -13.53582 0.36000
-8.54224 -8.21952 0.11500
-10.02225 -13.03172 0.28500
-9.89320 -8.95735 0.16268
-3.49976 -17.46235 0.43329
-7.90503 -11.48735 0.05236
-8.05157 -11.59905 0.15000
-10.56735 -16.19340 0.15000
-7.08394 -8.66482 0.01500
-10.47433 -12.11531 0.15000
-0.38455 -16.83765 0.10077
-13.73096 -11.46432 0.02230
-8.85267 -13.80235 0.48970
-0.84923 -17.52735 0.35978
-1.56472 -15.04740 0.01500
-4.83096 -16.90423 0.02472
-8.41666 -16.80831 0.00000
-0.82991 -16.74750 0.15859
-9.60596 -8.50084 0.15501
-0.41019 -16.83813 0.05563
-1.93427 -17.19247 0.15536
-11.73556 -13.79485 0.13055
-12.35996 -12.19485 0.08773
-0.34624 -17.54235 0.70510
-11.19210 -11.46313 0.28500
-4.46768 -15.83929 0.01500
-4.83096 -16.90557 0.03364
-10.24630 -7.75735 0.10115
-4.07568 -15.64739 0.01500
-0.01596 -16.27162 0.50494
-10.96139 -11.85666 0.28500
-0.30303 -17.10220 0.08213
-3.47731 -8.97235 0.41310
-11.13096 -10.82601 0.42753
-8.65889 -8.49108 0.00000
-5.15306 -15.01735 0.06338
-0.21180 -7.74235 0.56914
-4.22874 -17.09543 0.00000
-4.63421 -10.04556 0.11500
-2.40096 -7.75225 0.51373
2.30361 -16.26235 0.23092
-0.62601 -16.22135 0.11500
-3.06016 -8.81734 0.15576
-1.87212 -16.42263 0.27115
-3.72268 -17.29685 0.09533
-0.03097 -15.24799 0.07117
-7.22655 -7.74235 0.14060
-6.24389 -15.50218 0.01500
-6.33522 -16.86101 0.01500
-11.83096 -13.77777 0.30976
-9.93007 -13.81735 0.52105
1.73209 -9.41544 0.00000
-4.80174 -16.26235 0.60324
-1.25414 -10.02503 0.02821
-10.06163 -13.58600 0.15000
0.59497 -15.20686 0.05186
-1.97747 -7.92638 0.01500
-9.21629 -16.94060 0.01500
-3.61596 -9.18693 0.44033
-13.70390 -11.69485 0.25549
-8.09922 -16.68723 0.01500
0.05907 -15.03235 0.21566
-0.91783 -16.23665 0.28427
-11.27783 -12.44064 0.13500
-10.19202 -11.28545 0.34666
-6.42685 -8.49160 0.11500
-11.93575 -11.37985 0.41321
-2.44596 -16.23738 0.48535
-10.18096 -15.10691 0.09028
-7.48607 -15.23396 0.03000
-10.86199 -11.93735 0.31181
-7.64049 -7.75735 0.35485
-0.37547 -9.85928 0.07199
-3.12106 -16.77160 0.01500
-4.68876 -9.00735 0.03455
-0.92586 -16.02762 0.01500
-11.13096 -14.32591 0.48112
-2.64497 -8.05842 0.04161
-4.89968 -9.00735 0.08070
-10.33096 -12.61360 0.30070
-10.86135 -13.12988 0.27000
-7.87003 -10.10735 0.08396
-0.33262 -10.17235 0.46608
-7.88547 -12.70853 0.16500
-8.70467 -12.65253 0.15000
-4.78096 -16.28837 0.33698
-2.26530 -15.76871 0.25775
-3.38721 -17.46235 0.30657
-2.38799 -17.06954 0.01500
-13.09501 -11.69485 0.09538
-4.76873 -8.86828 0.00000
-7.78096 -7.98016 0.19801
-0.56897 -8.90735 0.07848
1.70599 -10.03888 0.00000
-4.42205 -8.35735 0.05704
-11.43096 -13.16714 0.15609
-0.57897 -16.09566 0.11739
-1.71501 -17.47735 0.25804
-13.17534 -13.80985 0.12673
-10.82399 -8.90735 0.44813
-7.55404 -15.91489 0.01500
-7.68798 -15.61579 0.04846
-3.26330 -17.08296 0.07108
-6.53921 -7.90176 0.01500
-10.40353 -8.04092 0.00000
-10.90480 -10.97134 0.30000
-13.33239 -12.60141 0.00000
-6.37025 -9.50103 0.01500
-11.53096 -11.49974 0.29626
1.31592 -10.03322 0.00000
-3.22692 -8.34854 0.12222
-7.08152 -7.80735 0.03811
-5.42411 -9.11206 0.21500
-5.68309 -15.80626 0.00000
-8.39211 -16.21735 0.02690
-6.93117 -8.48225 0.11500
-0.72826 -8.95735 0.07567
-1.72445 -17.08169 0.05575
-1.62666 -14.99735 0.60366
-0.36809 -7.75735 0.30359
-13.37129 -13.19194 0.09158
-10.25152 -8.54637 0.01500
-9.58096 -11.48429 0.17043
-0.00096 -16.93229 0.11060
-9.82699 -7.80735 0.13194
-1.45089 -16.76883 0.06059
-2.23300 -15.99951 0.01500
-4.57913 -15.98159 0.00000
-6.70942 -7.87983 0.00000
-7.03985 -8.61628 0.01500
-9.36257 -11.94148 0.28500
-9.40946 -8.09011 0.00000
2.36904 -15.84429 0.43059
-4.34111 -15.92297 0.01500
-6.22361 -9.32370 0.01500
-0.66594 -8.19985 0.07716
-1.05130 -17.17424 0.03975
0.00352 -15.03235 0.20032
-3.73769 -16.16771 0.01500
-6.51763 -15.87570 0.09213
-1.57420 -15.04735 0.46847
-9.65836 -16.25973 0.00000
-11.05889 -12.14834 0.43500
-6.99692 -7.75735 0.17000
-7.78408 -17.05414 0.00000
-0.02743 -9.12767 0.01500
-0.07682 -16.44814 0.11749
-5.26280 -8.97235 0.09490
-8.95265 -12.90932 0.15000
2.24754 -8.97235 0.02373
-11.81301 -12.19485 0.02944
-8.85391 -7.78407 0.11500
-11.13096 -14.99806 0.62987
-5.62424 -8.97235 0.11357
-9.05685 -7.75735 0.10490
-12.21649 -11.39485 0.32882
-4.15456 -9.71243 0.11500
-9.53374 -16.25232 0.01500
-8.14347 -15.01735 0.40195
-0.71848 -9.79234 0.00000
-1.58388 -8.97235 0.00656
-1.69667 -8.89335 0.13514
-11.41156 -11.42799 0.87086
-13.81715 -11.89485 0.02564
-11.46552 -12.38312 0.00000
-7.86169 -17.36011 0.01500
-0.17263 -17.54235 0.07599
-10.08657 -13.86433 0.33000
-8.77160 -12.60235 0.28740
-9.25469 -8.77448 0.01500
-7.18621 -17.43384 0.01500
-7.42917 -17.43235 0.51169
-11.03096 -10.80632 0.12555
-13.39152 -12.49716 0.00000
-11.87156 -13.39194 0.03384
-5.39336 -10.04238 0.01500
-10.83096 -16.41604 0.31770
-1.83731 -10.17235 0.42342
-10.50591 -8.97235 0.16034
-3.37057 -17.47735 0.48946
-1.77347 -9.08267 0.01500
-7.07897 -15.06304 0.11500
-10.97675 -14.97456 0.27000
-10.21387 -14.63908 0.30000
-10.77456 -12.35088 0.27000
-9.15829 -13.80235 0.13604
-11.03042 -10.57314 0.28500
0.50330 -9.42883 0.14585
-13.28422 -11.73130 0.27000
-0.03097 -16.80819 0.08564
-9.60596 -8.68864 0.21168
-8.34134 -10.18735 0.10450
-4.80096 -7.91930 0.04715
-13.53096 -12.90250 0.02097
-10.83096 -8.31684 0.54834
-10.83096 -16.71675 0.03832
-5.57887 -15.15884 0.01500
-10.39166 -10.63963 0.15000
-0.00096 -16.53430 0.36429
-6.16461 -9.31386 0.01500
-11.26456 -13.15209 0.43500
-1.05130 -17.40947 0.11712
-8.35465 -9.61499 0.01500
-0.00096 -17.26247 0.05263
1.03125 -8.95735 0.13453
-11.02051 -12.28051 0.40500
-12.13096 -11.56235 0.17537
-10.90820 -13.64079 0.42000
-3.85169 -16.44460 0.01500
1.94126 -9.29528 0.01500
-1.27222 -7.94827 0.07501
-1.24394 -9.31933 0.05696
-0.27054 -8.73566 0.07493
-1.77889 -8.46903 0.01500
-12.53779 -11.37985 0.59646
-2.35096 -8.12791 0.09446
-10.45285 -14.90169 0.28500
-2.22846 -17.46235 0.16305
-10.61159 -16.04288 0.15000
-9.21229 -12.55976 0.30000
-0.50502 -16.87007 0.15859
-8.38949 -9.77472 0.01500
-2.46096 -15.98510 0.42253
-6.08096 -15.97366 0.10591
-8.07482 -10.18735 0.58193
-9.77436 -10.08252 0.28837
-0.05097 -9.14003 0.09289
-1.35006 -9.30491 0.00000
-1.77994 -9.52774 0.09813
-7.02835 -7.95303 0.01500
-5.00999 -15.61935 0.01500
-7.82583 -16.80214 0.01500
-9.84220 -10.09476 0.16500
-3.14384 -7.83045 0.16001
2.36904 -15.50958 0.23019
1.50656 -9.62011 0.09050
-10.08758 -15.05727 0.20177
-7.10597 -9.19635 0.11500
-10.80067 -13.15235 0.22920
-3.87161 -8.29226 0.14389
-7.75794 -9.31556 0.01500
-0.81764 -17.54235 1.06111
-9.49587 -8.65924 0.11500
-10.84596 -8.32631 0.27417
-2.44596 -15.25142 0.13229
-1.48392 -15.45788 0.28427
-4.55457 -9.96073 0.11500
-6.83955 -17.43235 0.11719
-8.23630 -17.44735 0.39406
-11.13714 -13.77676 0.40500
-2.69889 -17.46235 0.60600
-5.57482 -9.19530 0.01500
-10.14491 -10.08199 0.15000
-7.73059 -16.27509 0.01500
-9.63096 -9.03144 0.52984
-7.21380 -17.07545 0.01500
-7.68899 -9.72834 0.00000
-6.03428 -15.33794 0.11500
-10.22169 -12.01481 0.31500
-7.37618 -15.48800 0.01500
-4.19333 -8.73020 0.01500
-10.26642 -12.70860 0.43500
-3.74319 -10.05382 0.11500
-4.83096 -16.96710 0.44151
-11.30450 -12.49581 0.27000
-4.87226 -8.95735 0.13153
-2.96098 -17.08619 0.01500
-2.92940 -8.42647 0.00000
-10.29348 -13.20175 0.28500
-11.90440 -11.37985 0.06814
-6.10566 -8.67875 0.01500
-4.03796 -15.69647 0.03000
-2.05877 -17.02068 0.00000
-3.06371 -8.95735 0.57738
-8.43096 -10.06224 0.33791
-4.19347 -16.16350 0.01500
-10.10125 -8.40242 0.01500
-6.23379 -8.35796 0.11500
-1.77012 -9.27199 0.07309
-4.67888 -7.74235 0.20755
-10.50274 -13.76943 0.27000
-11.73096 -13.06790 0.13216
-2.49024 -8.97235 0.57235
-10.83096 -7.79380 0.52183
-6.76224 -15.70544 0.01500
-2.39518 -14.99735 0.10832
-10.21385 -10.82254 0.28500
-1.75607 -16.43545 0.14944
-7.37690 -9.02235 0.07571
-8.05781 -8.93247 0.01500
-1.06968 -15.78556 0.07591
-8.26012 -15.05016 0.03000
-4.32263 -8.19005 0.13890
-10.84596 -15.22177 0.09355
-8.93447 -13.55739 0.26230
-8.38096 -10.00307 0.06042
-14.15202 -12.96500 0.08479
-4.52649 -7.82697 0.08428
-9.03297 -13.80235 0.51834
-0.10843 -16.77528 0.00000
-2.64073 -7.99464 0.07967
-7.42522 -15.28857 0.03000
0.87449 -8.97235 0.02488
-10.65088 -14.26918 0.30000
-10.09409 -10.69058 0.15000
-7.35069 -15.36077 0.00000
-1.42194 -8.76721 0.01500
-8.67933 -13.55109 0.15000
-8.16050 -8.53236 0.00000
-8.99245 -11.66244 0.13500
-11.00522 -12.92862 0.40500
-5.60779 -9.68843 0.11500
-4.92207 -15.07362 0.03000
-0.97532 -9.58735 0.08619
-12.70910 -13.35569 0.05000
-9.86034 -13.26668 0.30000
-10.84596 -8.74099 0.52501
-10.58096 -10.25145 0.03956
-12.43096 -12.11165 0.00642
-0.40430 -17.34309 0.01500
-10.80511 -11.71611 0.40500
-4.44015 -15.00235 0.03948
-11.14596 -10.56522 0.15998
-0.52029 -8.84328 0.00000
-8.43096 -15.05301 0.45830
-13.53096 -11.39995 0.14036
-0.01596 -17.11757 0.17163
-2.99014 -8.00485 0.01511
-11.63675 -13.79485 0.54984
-7.85247 -12.58735 0.02167
-6.36629 -17.35597 0.03000
-8.21367 -13.24094 0.13500
-13.23096 -12.96933 0.08163
-10.30043 -12.48736 0.37484
-6.74734 -16.66754 0.00000
-10.08122 -16.72126 0.03000
-7.24714 -8.94577 0.11500
-9.54282 -16.41419 0.01500
-8.61174 -16.23235 0.57947
0.47066 -15.42310 0.11689
-3.38212 -8.95735 0.23478
-10.83096 -10.15375 0.11047
-0.94295 -9.18012 0.00000
-2.43922 -16.99839 0.01500
-13.54146 -11.39485 0.26098
-3.68935 -17.05925 0.01500
-6.91987 -16.89779 0.01500
-3.12457 -17.46235 0.06417
0.26192 -9.94895 0.01500
-6.56370 -15.56058 0.01500
-10.04197 -8.38248 0.01500
-1.44705 -8.79335 0.04419
-7.46037 -7.82795 0.00000
-8.38096 -9.43927 0.04578
-11.83096 -13.57852 0.08878
-2.99384 -17.46235 0.10463
-5.25516 -16.21735 0.29364
-6.97817 -16.59237 0.01500
-2.86535 -8.00353 0.01500
-9.25522 -13.69836 0.28500
-10.44607 -16.85737 0.00000
-2.95409 -16.24735 0.04020
-10.95576 -13.86799 0.33009
-2.92692 -7.95627 0.00000
2.21112 -15.48583 0.01500
-10.49460 -14.38721 0.13500
-8.87051 -11.45030 0.15000
-10.56473 -10.72235 0.22015
-0.84818 -7.81019 0.13955
-2.36057 -7.74235 0.02393
-9.60046 -16.21735 0.18205
-6.71120 -16.92988 0.01500
-11.30718 -12.29536 0.42000
-2.84020 -8.86523 0.09682
-13.68385 -11.79485 0.14101
-4.18097 -8.22640 0.09132
-11.93096 -11.96044 0.09062
0.21608 -15.71199 0.01500
-8.56843 -12.58735 0.11900
-1.25847 -16.08667 0.12328
-2.39354 -16.24735 0.59234
-4.40630 -15.72318 0.01500
-2.40096 -10.15268 0.36779
-4.72071 -10.17235 0.61181
-10.77748 -10.69533 0.28500
-1.00387 -16.05326 0.01500
-10.03179 -13.80235 0.54952
-4.14087 -8.33983 0.01500
-9.27706 -8.31431 0.21500
-4.15224 -8.18534 0.06348
-0.31917 -17.47735 0.23955
-5.07721 -15.82303 0.03000
-2.41596 -9.12416 0.60821
-6.08524 -15.47866 0.00000
-5.35420 -15.44937 0.00000
-13.33096 -11.97136 0.04612
-13.70856 -11.37985 0.40452
-7.81209 -7.75735 0.53574
-1.15828 -16.43106 0.29391
-9.29302 -8.60517 0.01500
-4.73408 -8.97235 0.10747
-9.79723 -17.43136 0.01500
-0.26788 -9.72462 0.04316
-0.89406 -7.74235 0.18772
0.07551 -15.77511 0.12593
-11.06837 -13.34752 0.42000
-11.58839 -13.60083 0.54962
1.49281 -15.16703 0.00000
-10.14924 -13.41799 0.28500
-0.08483 -7.74235 0.11247
-3.06437 -17.20770 0.11931
-10.62746 -10.21045 0.28500
-10.78096 -7.83953 0.05151
-8.67535 -12.04789 0.15000
-3.26439 -17.47735 0.49457
-10.07682 -14.41871 0.28500
-1.34749 -14.98235 0.67211
-6.33395 -8.34632 0.00000
-5.98206 -15.83966 0.01500
-8.91255 -13.21435 0.15000
-3.44843 -17.05941 0.15859
-0.57186 -9.51698 0.00000
-7.49729 -9.26315 0.00000
-1.74530 -8.00461 0.07458
-1.96019 -15.11951 0.28750
-7.97952 -16.32279 0.01500
-8.43096 -16.70233 0.10663
-2.39063 -15.51676 0.17977
-8.38410 -16.45541 0.11500
-1.95701 -15.43532 0.07533
-1.72445 -15.24871 0.24089
-9.00605 -13.24541 0.16500
-11.33017 -11.93421 0.28500
-6.57437 -15.50029 0.03000
-10.27918 -13.70235 0.06335
-5.11112 -9.61631 0.00000
-3.08787 -16.75601 0.05793
-11.22312 -12.98335 0.40500
2.24098 -9.51368 0.15913
-9.29079 -16.23235 0.09657
-6.54281 -17.39287 0.01500
-0.05134 -8.95735 0.11162
-1.04526 -8.03262 0.07121
-1.02438 -15.77512 0.23146
-7.88270 -12.82035 0.15000
-1.05042 -16.10948 0.28427
-11.27656 -12.31832 0.28500
-13.18277 -11.99485 0.09411
-5.82062 -15.41974 0.01500
0.27580 -15.20408 0.03439
-6.48420 -16.23235 0.09685
-6.57689 -17.01282 0.01500
0.59846 -15.03235 0.60236
-13.43096 -12.22307 0.05046
-3.48526 -7.74235 0.16408
-4.39404 -9.80052 0.01500
-0.19201 -8.51954 0.05389
-0.47842 -16.41622 0.19430
-2.21608 -15.47015 0.01500
-1.76494 -9.74725 0.14325
-6.19163 -9.88424 0.01500
-1.52294 -8.10615 0.01500
-0.00097 -8.26490 0.57997
-2.26414 -8.25719 0.05488
-10.84596 -9.19919 0.45310
-6.11577 -16.55911 0.03000
-9.23693 -8.56747 0.00000
-1.68509 -17.42866 0.01500
0.31719 -15.76870 0.03534
-10.89849 -10.89737 0.15000
0.92970 -9.71406 0.07809
-4.73782 -9.52369 0.00000
-13.43096 -11.51312 0.06878
-6.60072 -15.82639 0.01500
-7.53756 -9.08184 0.00000
-12.14593 -11.65247 0.18000
-2.97541 -16.45561 0.01500
-2.24092 -9.58736 0.09361
-9.29818 -13.03351 0.15000
-0.87283 -8.95735 0.08407
-3.24494 -17.27685 0.00000
-8.43096 -15.66286 0.09303
-0.03432 -8.97235 0.10306
-11.92974 -12.22072 0.00000
-10.12955 -12.11257 0.28500
0.25187 -15.45909 0.01500
-7.48316 -17.39111 0.01500
-1.78395 -15.19972 0.00000
0.77737 -16.26235 0.59975
0.07899 -9.33937 0.01663
-1.36345 -16.30852 0.01500
-1.71804 -15.68974 0.04952
-0.03096 -16.56577 0.47947
-2.21203 -9.20616 0.01500
-1.28127 -8.04497 0.03363
-14.04416 -11.39485 0.09731
-1.66987 -17.34238 0.01500
-10.26510 -17.43235 0.38804
-11.73096 -13.25888 0.22547
-2.40702 -15.59121 0.01500
-11.39978 -12.60235 0.16279
-7.32029 -17.43235 0.07613
-13.33096 -11.74244 0.15837
-10.84596 -15.86836 0.04103
0.91411 -15.03235 0.07765
-2.40096 -9.93533 0.05451
-9.61596 -15.40586 0.28875
-8.21678 -11.38735 0.30638
-4.19496 -8.64004 0.04425
-9.94596 -8.74984 0.12749
-2.44596 -16.08233 0.70642
1.96091 -10.17235 0.00158
-8.94007 -13.58857 0.18000
-10.16938 -12.77955 0.28500
-3.59806 -17.46235 0.09387
-11.13096 -11.09630 0.45902
1.42479 -9.08987 0.02737
-6.81314 -9.39445 0.01500
-12.03254 -12.06555 0.00000
-11.88907 -13.69194 0.06021
-13.26512 -13.09194 0.13795
-2.32497 -8.82822 0.05846
-12.85218 -12.38676 0.00000
-13.49291 -11.39485 0.27053
-9.63096 -9.72589 0.33956
-0.69572 -8.55760 0.13097
-12.46790 -13.03100 0.00000
-11.13096 -10.65063 0.13957
-1.28139 -15.86514 0.00000
-4.96480 -9.81357 0.01500
-10.44322 -15.82779 0.13500
-4.80227 -17.46235 0.42791
-9.46745 -8.97235 0.29779
-4.18032 -8.82905 0.01500
-2.88471 -8.95735 0.55252
-8.98977 -12.60235 0.55844
-3.43043 -17.42275 0.12383
-6.69089 -9.40483 0.01500
-9.52229 -13.80235 0.38870
-2.39581 -16.09567 0.27009
-7.90772 -15.01735 0.60995
-11.63096 -12.99477 0.00003
-0.93513 -15.43533 0.05450
-1.90821 -10.01851 0.01500
-10.39533 -11.83616 0.28500
-9.58978 -11.60101 0.13500
-5.90218 -9.95658 0.01500
-11.98711 -11.99485 0.17492
0.04241 -9.32399 0.01500
-7.96713 -12.05279 0.16500
-10.82920 -11.78326 0.40500
-1.10730 -15.91140 0.28427
-9.66659 -17.11969 0.00000
-1.83704 -16.28717 0.00000
-7.97612 -17.41734 0.03000
-9.64311 -12.58736 0.17007
-10.63199 -9.32851 0.13500
-10.07715 -10.95415 0.28500
1.03782 -9.59873 0.06465
0.51458 -9.68529 0.13107
-13.53096 -11.65813 0.09407
-12.62637 -11.39485 0.44825
-2.39927 -16.24735 0.52123
-3.38134 -8.27191 0.00000
-2.91644 -17.47735 0.32423
-0.23884 -15.40506 0.15536
-9.09472 -16.21735 0.29204
-5.36405 -15.01735 0.27174
0.92972 -15.34887 0.04459
-13.33096 -13.49623 0.12237
-6.52175 -16.84781 0.01500
-13.53096 -13.67387 0.31234
-10.68675 -8.57822 0.01500
1.29256 -10.12691 0.01849
-10.83219 -12.48736 0.04798
-10.68958 -13.70998 0.13500
-2.24595 -15.41891 0.00000
-0.53208 -8.50407 0.14501
-0.89798 -9.02296 0.00724
-9.93178 -13.95588 0.28500
-10.53040 -10.36358 0.13500
-9.96553 -11.19001 0.28500
-1.76681 -9.03894 0.02617
-8.84069 -13.80235 0.35769
-13.43149 -11.39485 0.40183
-12.03840 -12.38949 0.10000
-9.01651 -7.74235 0.48280
-14.20566 -12.86900 0.05489
-11.13096 -14.91385 0.21429
-7.76976 -15.55615 0.03275
-4.99983 -10.17235 0.58128
-4.55667 -8.01663 0.06066
-6.03096 -8.15193 0.03070
0.45561 -15.81373 0.00000
-12.08075 -12.09485 0.12282
-4.21266 -10.10342 0.00000
-0.39549 -16.85495 0.01821
-4.15609 -8.42294 0.01500
-11.13096 -10.31991 0.28051
0.21253 -15.77855 0.15536
-3.63545 -16.84904 0.00000
-11.85067 -13.19194 0.08347
-0.96378 -8.81755 0.06132
-10.23096 -12.80729 0.13689
-1.73728 -17.06120 0.02337
0.59769 -9.59393 0.10379
-3.68797 -9.39504 0.01500
-4.22116 -10.16346 0.11500
-0.70652 -9.63736 0.07774
-1.67023 -9.59402 0.12417
-0.66494 -8.51255 0.12073
-10.22914 -10.10352 0.15000
-7.90262 -10.18735 0.46566
-0.63284 -9.29506 0.01500
-0.71792 -16.79439 0.14217
-10.35052 -17.44735 0.59237
-5.76060 -9.96119 0.00000
-2.30556 -8.66392 0.08695
-10.05139 -12.83241 0.27000
-12.43096 -13.13319 0.03858
-8.43096 -16.45288 0.07690
-1.96835 -8.50001 0.00000
-10.66467 -15.82440 0.15000
0.65739 -9.63450 0.01500
-1.85538 -8.95735 0.00807
-6.68417 -8.36387 0.01500
-1.82648 -15.10837 0.01950
-10.43452 -10.25582 0.28500
-11.00571 -13.03491 0.13500
0.28221 -15.94031 0.08706
-1.84829 -16.44186 0.10606
-10.80899 -17.43235 0.38064
-3.39853 -17.34357 0.16180
-1.27903 -14.98235 0.62499
-10.45641 -13.61906 0.43500
-0.73723 -16.39057 0.16233
-9.33564 -13.81735 0.34489
-12.37222 -11.39485 0.38099
0.64866 -15.18363 0.01500
-6.99861 -7.95703 0.00000
-6.03096 -16.54204 0.51268
-4.70249 -16.77308 0.01500
-7.66678 -8.20781 0.21485
-1.86341 -8.87473 0.01500
-1.73728 -15.39804 0.11081
1.88834 -15.03235 0.13634
-0.52365 -15.04735 0.29495
-11.50054 -13.68286 1.47392
-0.49808 -9.00767 0.00000
-6.08112 -10.07124 0.00000
1.13419 -8.97235 0.29868
-10.06636 -13.91179 0.30000
-11.09083 -11.48921 0.42000
-11.28900 -13.30847 0.15000
-9.45206 -17.44735 0.33651
-10.04059 -10.56705 0.27000
-1.99105 -7.81862 0.00000
-7.69108 -16.88946 0.13000
-2.40096 -8.18892 0.02420
-0.72631 -17.42596 0.02135
-1.79494 -9.32523 0.12278
-1.64897 -8.81779 0.00000
-10.74221 -10.24498 0.30000
-1.81404 -7.82135 0.12492
-8.43096 -15.27919 0.60010
-0.11373 -9.28148 0.01500
0.87742 -9.90444 0.01500
-5.48901 -15.48095 0.01500
0.26297 -15.45543 0.02021
-11.43096 -12.17707 0.14494
-11.13096 -14.55886 0.22496
-10.17980 -17.14570 0.03000
-2.44596 -15.04603 0.55052
-8.31305 -15.79099 0.00000
-6.26305 -10.16152 0.01500
-8.07644 -17.21468 0.00000
-2.46096 -15.12847 0.06223
-5.11596 -9.58916 0.15097
-3.74043 -15.06735 0.07654
-13.14453 -13.49194 0.12494
-9.07365 -7.75735 0.22642
-10.97153 -13.79617 0.42000
-4.38718 -9.58056 0.11500
-1.74369 -17.01578 0.14108
-8.73366 -17.43235 0.29761
-5.48234 -9.09823 0.01500
-0.00759 -8.46975 0.11500
-7.37532 -15.53576 0.01500
-3.37999 -17.47735 0.33602
-4.18097 -8.35456 0.05532
0.69766 -9.55735 0.01611
-8.95573 -12.39848 0.18000
-4.40971 -9.95420 0.01500
-2.57325 -16.70731 0.15536
-10.04284 -11.48314 0.28500
0.96965 -10.17235 0.46550
-11.47978 -13.19194 0.03537
-7.95632 -13.58653 0.15000
-7.41303 -15.55357 0.00000
-7.25193 -16.80850 0.01500
-8.38096 -15.54581 0.08743
-3.91730 -16.30718 0.01500
-5.35005 -9.60431 0.01500
-0.75632 -15.04735 0.21118
-8.01454 -9.52501 0.00000
-2.22306 -17.16789 0.01500
-6.80971 -16.86968 0.03662
-3.74772 -17.40822 0.01500
0.25656 -15.57236 0.12708
-1.64499 -15.22258 0.28750
-9.27087 -12.19103 0.27000
-4.73167 -16.09575 0.03000
2.07942 -9.27610 0.00000
-8.28902 -16.89343 0.01500
-7.85764 -16.03855 0.00000
-11.13096 -14.20835 0.26745
-5.92609 -8.97235 0.11963
-0.61528 -16.30276 0.01500
-0.32105 -17.47735 0.21380
-11.58093 -11.36109 0.00000
-8.38096 -11.44555 0.10813
-2.31211 -17.08297 0.11299
-8.47094 -13.51136 0.15000
-11.93672 -11.39485 0.06409
-0.87791 -16.44186 0.03482
-0.41019 -15.90726 0.07796
-1.52097 -7.96685 0.07999
-9.92075 -8.94452 0.11500
-10.86669 -11.35685 0.27000
-11.44785 -11.69485 0.28920
1.24653 -15.36065 0.15536
