# .PCD v0.7 - Point Cloud Data file format
VERSION 0.7
FIELDS x y z
SIZE 4 4 4
TYPE F F F
COUNT 1 1 1
WIDTH 1837
HEIGHT 1
VIEWPOINT 0 0 0 1 0 0 0
POINTS 1837
DATA ascii
-4.58265 -9.92119 0.43500
-7.00322 -8.59485 0.07522
-7.83096 -9.90161 0.08078
-0.75788 -14.30644 0.01500
-3.74892 -8.37235 0.74004
5.88455 -7.18735 0.29002
-6.03096 -8.41086 0.10076
-7.24036 -8.62854 0.27000
-1.03855 -13.42933 0.01500
4.93689 -13.59740 0.01500
4.97808 -4.78338 0.11500
-3.65965 -6.95735 0.23699
5.85606 -5.32162 0.09488
-4.09785 -10.82919 0.34831
-4.64534 -9.91094 0.43500
-5.02129 -10.09421 0.27000
1.63828 -12.79777 0.03000
2.23990 -6.16474 0.01500
6.74744 -6.61959 0.12693
5.98404 -13.43555 0.26743
-4.83096 -13.42568 0.26433
4.55559 -12.43533 0.22849
-6.69599 -8.58497 0.05000
-0.83769 -13.25611 0.01500
-3.31014 -9.58735 0.44289
4.56001 -14.42276 0.13892
3.76496 -5.31365 0.01500
-3.66497 -9.18657 0.28500
-0.03096 -4.92938 0.49431
4.96726 -12.76871 0.21888
-4.75039 -11.73647 0.30000
-5.23972 -10.52684 0.40500
0.45108 -6.12824 0.01500
4.60892 -12.10179 0.06186
-1.83097 -5.29486 0.11687
-3.13096 -10.76132 0.01766
0.49753 -7.17235 0.46429
8.11117 -12.04735 0.11272
-4.17632 -11.86994 0.28500
-3.09275 -4.75735 0.05360
-3.63096 -12.15783 0.17618
-1.05038 -12.00235 0.08998
4.18354 -12.74946 0.07549
4.08112 -4.74235 0.15253
6.75861 -13.08926 0.05229
-6.60997 -10.80985 0.54087
-4.70848 -6.96759 0.15000
-3.63096 -6.61224 0.38574
5.95152 -14.05613 0.01500
-5.07009 -10.29590 0.42000
-5.67964 -8.69485 0.33058
-4.38735 -9.53507 0.42000
3.75205 -5.55397 0.01500
-2.45502 -5.61807 0.11500
-2.75554 -5.95735 0.42684
5.10929 -14.41634 0.27848
-4.83096 -12.48151 0.47513
6.62909 -12.76870 0.02546
-1.68180 -7.03718 0.11500
-5.14596 -8.28731 0.64540
-4.93567 -11.35811 0.13500
5.35748 -14.10862 0.23347
7.57220 -12.12529 0.01500
-5.63096 -10.41672 0.01591
5.19777 -14.52735 0.69263
-3.77265 -14.14564 0.05482
-3.63096 -6.93672 0.12236
-1.42479 -13.32572 0.03000
4.44004 -11.99735 0.10824
5.46913 -6.56357 0.00724
-0.34205 -7.10735 0.03727
-5.13096 -8.27740 0.15547
-4.17688 -10.15235 0.16861
1.99801 -14.36999 0.01500
7.26308 -5.97235 0.11031
-0.24113 -13.18330 0.01500
-7.33575 -9.16700 0.18000
-1.90009 -6.72294 0.11500
-1.11459 -5.26383 0.21500
-4.76745 -8.76840 0.40500
3.57603 -5.07121 0.11500
4.60892 -12.79253 0.15293
-0.29391 -4.75735 0.11714
-3.81455 -5.91763 0.11500
-7.23096 -9.96209 0.04899
-5.14596 -11.42078 0.47051
-4.15895 -5.68834 0.01500
-3.39382 -9.60235 0.62986
2.50774 -14.46235 0.54336
-3.47429 -9.48327 0.15000
-0.75341 -12.62874 0.00000
-4.65354 -6.08807 0.13500
-7.69069 -8.50743 1.34722
-1.94902 -6.32971 0.01500
7.73236 -7.17235 0.51990
-3.63096 -12.81553 0.08646
-3.07107 -5.97235 0.23283
-4.37018 -6.10831 0.16500
-4.78065 -10.95992 0.13500
-4.83096 -5.14806 0.23115
-1.42007 -12.39978 0.01500
-2.33580 -5.90735 0.11382
5.30606 -5.44770 0.09931
4.23506 -7.07503 0.02169
4.73452 -5.84842 0.04678
8.20498 -6.29033 0.01500
5.85672 -4.74235 0.22972
-4.58127 -9.96524 0.15000
-4.28748 -10.66191 0.13500
-4.95214 -8.95073 0.15000
-0.44664 -5.16483 0.11500
-2.96541 -5.73976 0.00000
3.53904 -12.97735 0.76260
3.56904 -12.81140 0.02865
-4.82251 -13.23235 0.03781
-4.49570 -14.44735 0.42639
-4.58096 -7.76575 0.06004
3.94217 -12.13617 0.24411
-5.43096 -10.13542 0.05726
-1.21485 -4.75735 0.27751
5.84862 -12.03235 0.40965
7.18196 -6.09628 0.01500
-3.58096 -9.50109 0.15003
4.41236 -6.58635 0.07972
6.65391 -7.07890 0.15199
-4.84596 -12.80944 0.46902
-0.90223 -5.58400 0.00000
1.76011 -5.92296 0.00000
0.11416 -6.19914 0.00000
1.39359 -5.34893 0.01500
-4.23097 -8.47852 0.09968
1.30395 -6.69974 0.01500
1.41937 -4.74235 0.24139
7.41767 -13.11002 0.00000
3.26089 -5.48393 0.06973
2.34423 -6.02235 0.42019
5.12657 -6.88414 0.08555
4.27555 -13.02697 0.05221
-4.51782 -9.79062 0.40500
6.97097 -6.57235 0.03671
-2.32170 -6.22256 0.11500
-1.92312 -9.42227 0.15000
8.00985 -6.74726 0.08677
-4.47195 -13.21392 0.13500
2.94061 -14.41235 0.04208
-2.54386 -13.60613 0.00000
2.07532 -5.02608 0.07257
-4.84596 -13.19196 0.52458
6.95351 -12.12199 0.00000
-4.10811 -8.58200 0.13500
3.55404 -12.98682 0.90911
-1.76643 -7.10735 0.05561
1.84679 -5.66227 0.15390
7.58315 -12.10657 0.01500
-3.98191 -5.24498 0.01500
-6.03096 -9.03099 0.01129
-4.59319 -10.53619 0.28500
-6.00398 -9.25678 0.00000
-7.77330 -10.80985 0.73898
5.25400 -4.86573 0.15140
-3.68520 -6.96155 0.16500
4.60039 -5.09501 0.09880
-3.79384 -10.80235 0.14480
-7.33612 -8.59485 0.21840
5.04679 -12.75588 0.08287
-1.42821 -5.49132 0.00000
5.96752 -12.76870 0.05880
6.72713 -6.56610 0.01500
-2.90260 -9.04070 0.13500
5.45973 -6.60449 0.11614
-4.06740 -12.25991 0.15000
4.45351 -13.10849 0.10236
7.73156 -6.76645 0.02206
-4.96931 -7.63071 0.27000
-4.73969 -13.57505 0.03000
-4.66602 -11.49108 0.28500
6.91429 -12.74947 0.02957
6.54808 -12.37264 0.15536
-2.36666 -13.23235 0.51189
2.13801 -12.57920 0.01500
-4.49411 -13.24075 0.00000
4.61177 -6.79935 0.06414
-1.93264 -12.00235 0.24570
2.35503 -5.27103 0.12482
-2.62153 -13.60393 0.00000
5.98404 -14.11386 0.61308
4.81157 -5.65505 0.08933
-0.54453 -12.39627 0.01500
3.86416 -13.86639 0.15536
-6.30951 -9.59485 0.03495
6.60403 -6.33129 0.14143
5.26285 -13.76894 0.06994
-4.40354 -8.82161 0.40500
-2.43597 -5.67159 0.12404
-1.19483 -6.57158 0.14885
-2.80979 -4.97010 0.01500
-3.17522 -9.29766 0.28500
-2.97856 -14.43235 0.24346
-1.45919 -14.43235 0.18548
3.55791 -12.13670 0.01500
-0.97628 -14.05837 0.13000
-5.79067 -8.40067 0.36000
-3.93096 -7.44753 0.55216
-2.62837 -13.91320 0.00000
-0.80581 -12.79614 0.00000
-3.03361 -14.26687 0.01500
-2.83026 -4.74235 0.51961
-2.02693 -12.22918 0.00000
2.36215 -12.28731 0.01500
3.99640 -6.45071 0.01500
3.59904 -6.54789 0.13267
0.47301 -6.03775 0.00000
6.76829 -6.07907 0.01500
4.75404 -11.99668 0.54589
6.74340 -7.17235 0.52028
-0.80526 -12.10899 0.01500
-3.36890 -9.84784 0.28500
-4.29642 -6.33798 0.15000
-2.94382 -5.10152 0.00000
5.99903 -5.38750 0.20975
-0.18731 -5.61657 0.01500
3.61904 -13.82730 0.02005
8.16852 -6.21562 0.05719
-6.07057 -10.51762 0.18000
3.53904 -12.58861 1.18814
-3.61596 -13.12046 0.07268
-3.99596 -5.11786 0.19885
-3.97345 -6.92353 0.16500
-2.60445 -14.43038 0.01500
-1.08324 -12.01735 0.02669
-0.39921 -12.54995 0.01500
0.75641 -12.87755 0.01500
-3.61596 -12.68521 0.04492
-6.25903 -10.79485 0.11510
0.51897 -12.06735 0.03142
-3.57570 -8.53874 0.15000
-0.03575 -6.38156 0.11500
-4.81155 -8.31983 0.31500
-3.68005 -9.72696 0.28500
-5.14411 -11.01987 0.75000
3.92294 -12.64138 0.18243
-5.08594 -10.20732 0.42000
3.87710 -13.97447 0.15859
2.28331 -13.16735 0.02685
-2.93253 -13.62348 0.01500
-0.79268 -5.64413 0.11500
-4.57787 -14.38235 0.10400
-0.54415 -6.46890 0.01500
-7.33096 -10.71935 0.03171
-7.27509 -10.09194 0.17730
-4.22631 -4.80735 0.12996
-2.32052 -7.17235 0.08059
1.97115 -12.01735 0.60901
-4.03096 -9.57862 0.48847
-0.83265 -5.24117 0.01500
-0.01596 -5.22641 0.54913
6.43241 -7.14740 0.11500
5.02804 -6.13279 0.02356
7.08749 -6.64066 0.00000
4.38443 -7.12235 0.06067
-1.67550 -6.43153 0.12402
-1.68683 -7.18735 0.16746
-0.56369 -12.45186 0.00000
-3.93455 -13.35936 0.03000
1.06497 -6.58885 0.01500
-4.84596 -7.10672 0.55658
-3.95391 -6.96351 0.15000
4.58927 -5.49837 0.01500
-4.23096 -8.96275 0.43093
-4.42126 -10.77290 0.40500
-1.24315 -12.89387 0.01500
-7.33096 -8.80060 0.11240
-7.43096 -8.68765 0.25870
-4.74019 -13.18566 0.15000
-4.93260 -10.41377 0.40500
-2.39642 -12.16078 0.01500
-0.02047 -12.16494 0.01500
-4.79640 -8.17120 0.30000
-4.13593 -8.35116 0.33000
-1.30276 -14.44735 0.48820
4.26700 -5.83399 0.17205
5.26462 -13.41794 0.29071
-1.83475 -9.57394 0.13500
-3.68947 -8.38735 0.30187
-2.85540 -14.13701 0.01500
3.40427 -4.94501 0.05085
-4.84596 -6.34155 0.32720
2.36904 -6.47555 0.22102
5.79313 -12.89428 0.15536
-4.40924 -4.97435 0.01500
-3.93096 -10.91422 0.37408
5.79905 -6.84310 0.01500
-7.23096 -10.12590 0.13010
6.55440 -6.83093 0.00000
4.53781 -6.30082 0.02905
-2.10307 -12.88945 0.07272
-3.24521 -9.10017 0.15000
8.11657 -7.17235 0.02381
-2.55351 -14.44735 0.10484
-7.33096 -8.76118 0.00101
1.28304 -5.63265 0.02237
-5.06904 -8.27592 0.15000
-4.39487 -10.90879 0.27000
-6.31444 -8.39485 0.07967
2.21792 -4.74235 0.40302
-4.54134 -4.94885 0.01500
-3.54752 -10.22405 0.13500
2.38404 -6.39513 0.58017
-4.04707 -12.52698 0.15000
5.68517 -5.67167 0.06823
-0.31033 -12.00235 0.40765
1.20197 -13.31235 0.57625
-4.55724 -11.51056 0.30000
-4.73346 -12.89699 0.13500
-4.80067 -12.06661 0.16500
-2.83096 -9.65041 0.49778
-3.59187 -5.63967 0.11500
0.26340 -12.00500 0.61500
3.06560 -13.24735 0.28767
-6.11646 -9.70295 0.00000
-7.23572 -9.99194 0.00946
3.31732 -5.21819 0.01500
-5.13424 -9.32483 0.28500
-3.93096 -7.39569 0.66250
3.38410 -5.95735 0.02918
5.25644 -12.23923 0.13602
3.78360 -4.74235 0.37685
-2.11715 -9.58735 0.43850
5.65837 -13.22830 0.00000
3.81963 -12.77569 0.28750
-5.38915 -9.67466 0.43500
-4.81610 -14.44735 0.03877
-4.83096 -6.61295 0.20962
5.58789 -5.34235 0.03019
-3.70192 -9.64808 0.28500
-3.66973 -13.50385 0.01500
-1.92194 -5.97235 0.04770
7.87005 -6.02235 0.07910
-0.01596 -14.00134 0.23007
-5.12902 -11.36735 0.20795
-5.53096 -10.61222 0.26646
5.11094 -13.78804 0.00000
-4.76748 -9.84412 0.42000
-4.17038 -9.58736 0.01823
5.63554 -6.50337 0.08332
-0.05563 -7.16600 0.01500
-3.95903 -8.21167 0.15000
-5.00727 -10.26818 0.13500
-5.54417 -10.85985 0.86294
1.25806 -12.00235 0.12815
-5.43096 -10.39276 0.27518
-0.63096 -6.73125 0.19603
-3.66454 -5.58124 0.00000
-5.73096 -9.46151 0.04876
2.27028 -14.26209 0.16500
5.30585 -12.57426 0.00000
5.26284 -14.23546 0.13855
-3.27779 -5.12110 0.01500
-5.83096 -8.87621 0.26423
-2.05132 -8.89337 0.13500
0.52159 -6.01011 0.21500
-4.23097 -9.01011 0.23902
3.60605 -5.51550 0.11500
6.77570 -12.80456 0.00000
1.18858 -12.14744 0.03000
-0.48828 -14.10148 0.03000
-5.14596 -11.15569 0.58861
-1.80837 -5.90361 0.11500
-5.43096 -10.46574 0.16427
3.32064 -13.44187 0.02437
-3.40104 -5.36195 0.11500
-5.32231 -9.92489 0.15000
8.28213 -12.12039 0.01500
-4.07926 -8.87350 0.15000
-4.68344 -10.57836 0.40500
-0.85286 -5.40936 0.01500
-8.01234 -9.31682 0.10669
2.38404 -12.97788 0.07749
-2.35504 -6.24555 0.00000
4.73999 -6.62317 0.00000
3.36185 -5.75023 0.05821
-5.13096 -8.33856 0.33353
-4.83096 -12.77871 0.38622
-2.07765 -5.89031 0.01500
4.00605 -5.25750 0.12728
5.48617 -12.75588 0.04461
-5.46715 -8.59485 0.24102
-1.17914 -12.06428 0.01500
-0.01596 -5.90616 0.05375
7.74568 -7.12985 0.10902
4.75606 -6.29657 0.06966
-4.10231 -13.80229 0.01500
1.68845 -12.05608 0.01500
0.01904 -6.65875 0.08665
-0.88513 -13.57229 0.01500
-0.13724 -13.33863 0.09063
-4.29018 -12.61742 0.13500
-1.65162 -4.79495 0.11500
1.75163 -6.83121 0.11500
-2.77199 -14.44735 0.33503
3.67006 -6.79547 0.08128
2.15427 -5.27425 0.15459
-2.37976 -4.85576 0.00000
3.49271 -13.61051 0.01500
5.76342 -13.45566 0.28750
-3.61385 -13.66210 0.03000
5.31995 -12.48602 0.15859
-3.08082 -9.58735 0.40241
-3.63096 -6.40912 0.58681
2.36904 -12.21965 0.20968
-0.03096 -13.83781 0.36212
1.78865 -13.29762 0.00000
1.12786 -7.17235 0.17291
-4.33612 -5.86267 0.01500
3.55404 -12.55777 0.93958
-3.57261 -8.49325 0.27000
-5.30912 -10.29692 0.27000
4.38336 -7.04855 0.01500
-5.46779 -10.59194 0.34650
-1.66226 -6.54621 0.01500
-4.19243 -13.17022 0.15000
-1.53281 -5.75787 0.11500
4.49426 -12.74949 0.19290
4.75606 -5.20934 0.12139
4.34362 -13.26496 0.01500
8.35896 -6.73221 0.00000
3.99068 -5.38294 0.02276
2.71769 -13.26235 0.48828
-1.54889 -5.83589 0.11500
6.52253 -6.03635 0.10801
-2.46092 -13.42543 0.03000
1.18404 -5.81057 0.40425
-2.04053 -12.96797 0.03000
-5.93106 -9.79485 0.01406
-3.99563 -8.97503 0.27000
-3.57831 -8.68509 0.15000
-2.11595 -13.03878 0.01500
-4.45363 -14.17517 0.03000
6.74285 -13.26235 0.14769
-4.82108 -7.89608 0.27000
-5.83096 -10.65704 0.11588
4.25631 -13.04742 0.12175
2.82965 -5.54468 0.11114
-0.39120 -5.64741 0.00000
-3.15149 -13.21735 0.07508
3.90788 -5.54411 0.00000
-3.95657 -12.50340 0.15000
1.03094 -6.82634 0.01500
-1.83879 -6.24989 0.01500
3.62689 -4.75735 0.25537
5.89545 -12.76085 0.01500
3.33122 -13.26235 0.09526
-4.52400 -8.42049 0.42000
-2.71644 -14.44735 0.32643
-5.39304 -9.17314 0.43500
-4.08708 -4.99407 0.00000
-6.61005 -8.97756 0.05000
-4.79270 -10.38278 0.40500
-1.63087 -6.20195 0.11500
-4.82538 -9.84373 0.28500
1.87576 -13.19682 0.01500
-0.59711 -4.75735 0.49590
3.11439 -5.90735 0.07532
0.89900 -6.40306 0.11500
-3.63096 -6.58249 0.09495
5.57425 -14.47735 0.58685
-2.95752 -13.50185 0.01500
2.84056 -13.24735 0.41319
-3.80597 -8.72232 0.27000
-4.35038 -9.66020 0.15000
-3.94438 -10.91735 0.70270
-3.77955 -9.15072 0.13500
4.31300 -5.83289 0.15972
3.52362 -5.24706 0.01500
2.94960 -13.75601 0.12051
-7.63544 -8.39485 0.46509
-4.14937 -4.80735 0.07899
-4.33096 -10.23701 0.06384
-1.73158 -5.17420 0.01500
5.11654 -5.33817 0.11456
6.28221 -12.98086 0.10277
-1.92695 -12.81509 0.00000
-4.73096 -6.55166 0.09998
2.31904 -12.57545 0.08085
0.95288 -7.06059 0.11500
-2.76556 -13.23235 0.24489
6.92331 -12.88312 0.04075
5.55601 -5.35735 0.11110
7.79105 -7.18735 0.16834
-0.74291 -7.18735 0.32476
3.58299 -13.46750 0.15536
-0.06040 -4.74235 0.15613
4.32449 -13.10207 0.10475
-6.68349 -9.87967 0.00000
8.36904 -13.14224 0.45431
-3.35430 -8.60450 0.27000
4.27555 -12.16551 0.16669
4.48258 -12.78930 0.15536
1.97371 -7.17235 0.27435
4.33400 -13.40677 0.01500
1.86482 -5.94480 0.01500
-4.65838 -12.50290 0.13500
-4.15394 -10.27921 0.28500
6.01403 -4.89843 0.27156
-2.40623 -6.54292 0.00000
4.55258 -4.75831 0.00000
-5.25151 -9.97508 0.42000
-4.77571 -8.85326 0.15000
6.27871 -7.17235 0.38312
5.89818 -13.42904 0.07951
-1.57372 -13.52320 0.03000
-4.74635 -10.11870 0.43500
-0.04552 -6.96288 0.01500
-3.32501 -5.94070 0.01500
-3.20679 -13.89912 0.03000
-0.04833 -5.80199 0.00000
5.91598 -7.18735 0.28498
-4.18009 -8.93735 0.06816
-2.43096 -12.67567 0.35448
0.88391 -12.06735 0.06550
7.70969 -6.56058 0.10371
-4.52143 -7.82235 0.24906
4.13900 -14.23276 0.15859
5.99904 -13.97976 0.32943
2.61447 -13.25669 0.01500
4.19880 -6.89952 0.00000
-7.38734 -10.69194 0.09359
2.90900 -5.02242 0.15864
-1.61634 -12.87181 0.03000
4.60892 -14.35067 0.08884
-0.18536 -5.01545 0.00000
5.28208 -14.32460 0.07248
-7.19153 -10.80985 0.39073
4.45335 -11.98235 0.68029
-7.63096 -8.62261 0.11120
-7.86603 -10.76189 0.87661
-8.20722 -9.64569 0.07000
2.14524 -5.49745 0.08946
-1.21021 -7.18735 0.57837
1.24636 -5.90735 0.09475
5.65854 -13.74959 0.18331
-5.83096 -10.60515 0.12968
-0.65845 -13.07175 0.01500
-3.83511 -5.35830 0.01500
2.44256 -4.86999 0.03366
2.75341 -5.97235 0.44062
-3.93096 -11.96444 0.72493
4.27500 -5.68235 0.04018
3.53904 -12.44797 0.83728
-4.91272 -10.36937 0.28500
-4.31207 -13.96708 0.00000
4.98187 -4.93554 0.00000
3.79120 -5.64551 0.09189
6.96116 -12.09127 0.00000
-0.01596 -13.34957 0.46562
5.59489 -6.77484 0.00000
1.46098 -12.35160 0.01500
-6.13096 -9.93710 0.08518
-1.54088 -12.55908 0.03000
-1.83096 -8.52427 0.14378
5.65561 -14.54235 0.62616
-5.50634 -9.45048 0.00000
-4.80432 -8.80885 0.42000
-3.86266 -9.60235 0.33309
3.93516 -12.36145 0.00000
0.86803 -13.11954 0.01500
-3.47237 -10.32277 0.30000
4.74026 -13.10673 0.10078
-8.24243 -8.43451 0.06057
-4.33097 -8.39481 0.39143
-8.38503 -10.20265 0.00683
-0.20325 -12.66517 0.01500
-5.03890 -10.91909 0.15000
-7.53096 -8.62024 0.12418
-1.20348 -4.76903 0.21500
-2.42722 -5.90735 0.03867
-5.53096 -8.63579 0.02850
2.37839 -13.17697 0.01500
5.58195 -13.75715 0.00000
8.38404 -12.34573 0.03096
-4.33097 -8.98040 0.26500
2.68954 -4.74235 0.06460
1.90621 -4.80735 0.08357
4.26593 -13.47643 0.16387
-4.45598 -5.72501 0.01500
-5.13096 -11.37224 0.17014
-0.78305 -12.20463 0.01500
-3.20240 -5.32793 0.01500
-3.35908 -8.38735 0.73295
1.40539 -13.28175 0.11500
1.80503 -5.39518 0.11180
4.67750 -6.12394 0.00000
-4.06870 -8.43735 0.68482
-3.89181 -12.25826 0.15000
4.44506 -6.34543 0.06008
3.53904 -13.13180 0.73426
-2.41000 -5.76464 0.11500
2.05397 -4.97498 0.07441
1.33109 -12.50561 0.01500
3.90595 -6.03585 0.01500
8.36904 -12.39719 0.06805
-0.64607 -5.43536 0.01500
0.86952 -6.02235 0.04535
4.11632 -6.07299 0.12577
3.93493 -13.66929 0.11689
0.38574 -5.97235 0.60032
-2.95829 -9.62091 0.13500
-4.19010 -5.97235 0.16086
-3.33660 -8.48284 0.27000
-2.38096 -14.00334 0.05872
5.99903 -6.78326 0.07073
-6.22885 -10.79485 0.21183
4.01609 -14.46235 0.20494
-4.24569 -11.78966 0.13500
5.68815 -14.08939 0.13814
6.52256 -7.12235 0.10114
-3.06562 -4.75735 0.24543
-3.26505 -8.70779 0.28500
-1.88948 -9.58735 0.39169
-2.31105 -5.97235 0.10449
-4.12175 -10.31528 0.27000
-2.76646 -9.68096 0.15000
-3.59782 -9.06279 0.28500
-4.94395 -9.18802 0.28500
5.30506 -5.22260 0.12285
-5.37291 -9.00899 0.42000
4.25333 -13.41622 0.13539
4.33827 -12.81871 0.15859
5.92960 -13.61929 0.09593
3.50303 -5.95735 0.39047
-2.87144 -5.86453 0.00000
-4.02426 -6.37421 0.16500
-4.79492 -9.30853 0.43500
-4.32364 -5.17362 0.01500
-4.87824 -8.08068 0.30000
-4.79067 -10.80235 0.09361
-2.95622 -10.04914 0.13500
3.46337 -13.24735 0.24506
-3.10719 -10.44892 0.15000
2.36903 -4.84404 0.03847
-4.22827 -10.81735 0.21999
4.70252 -14.37726 0.15859
1.97291 -5.79562 0.13563
-4.10044 -9.65112 0.27000
5.11641 -12.97179 0.28427
-6.17577 -9.09485 0.14498
-7.03096 -9.36733 0.01946
2.36904 -7.08607 0.15761
3.97949 -7.18735 0.10933
-4.56707 -5.97235 0.14345
2.91904 -5.75560 0.03390
-0.18760 -12.18080 0.03000
-7.23094 -9.19485 0.09587
-2.07182 -9.60235 0.31906
4.95673 -5.35736 0.04361
-5.32709 -10.48749 0.42000
-1.99536 -5.34733 0.01500
-4.61306 -10.11130 0.40500
-1.94727 -9.60235 0.28727
-0.97113 -14.17252 0.07744
-3.30982 -10.34156 0.27000
5.08937 -14.16028 0.28568
4.62660 -12.92015 0.00000
-0.06312 -6.71439 0.00000
-2.00976 -12.06735 0.08656
4.58969 -13.58373 0.10348
5.16361 -4.74235 0.23102
-3.90191 -5.30374 0.00000
5.98404 -13.98206 0.05865
-0.46064 -6.38977 0.00000
5.43872 -7.17235 0.52717
2.85826 -13.24735 0.12733
-3.63096 -12.58660 0.20895
-4.75389 -7.55340 0.13500
-1.51165 -5.87567 0.11500
5.99904 -13.90418 0.60943
-0.08096 -5.78495 0.02964
2.36904 -12.65092 0.14426
6.59053 -12.42571 0.16139
5.91827 -14.47601 0.01500
4.60892 -13.45923 0.20090
-6.53286 -10.79189 0.05000
-5.24298 -10.51646 0.28500
-6.81321 -8.37985 0.46284
6.36904 -13.08285 0.09768
-7.35964 -8.79485 0.01245
-6.33096 -10.71080 0.06571
-2.14243 -10.80235 0.41914
6.00485 -12.11905 0.15536
-4.01879 -8.56389 0.30000
-5.62333 -8.59485 0.09231
-0.03096 -13.46627 0.08403
-4.62453 -12.44224 0.13500
5.10456 -13.75993 0.00000
-5.73096 -10.43831 0.19388
0.76535 -6.87289 0.01500
-0.08096 -5.16173 0.05514
1.85027 -12.90335 0.01500
-4.71836 -11.50444 0.27000
-4.18798 -9.03735 0.26320
-7.35715 -10.49194 0.12853
2.38404 -13.15130 0.01642
-4.61108 -11.54404 0.28500
-3.89339 -8.37235 0.36385
8.21295 -12.85459 0.01500
3.32993 -4.85810 0.04309
-0.95035 -13.21581 0.01500
0.21336 -7.03979 0.01500
-3.65499 -5.67764 0.00000
4.07138 -12.92136 0.28427
-4.68684 -7.76662 0.28500
7.57233 -13.02594 0.01500
4.94306 -13.59894 0.01617
-7.75517 -9.50763 0.00000
-0.39816 -14.21603 0.01500
3.03303 -5.10438 0.08241
-6.59075 -9.62186 0.00000
3.71704 -6.12515 0.01500
5.54362 -12.42251 0.14748
2.34100 -4.74235 0.55487
-4.11033 -13.33921 0.01500
-4.90218 -9.31139 0.27000
-4.22523 -10.52971 0.40267
3.61521 -12.32660 0.12461
1.63509 -6.03712 0.01500
4.86332 -12.44174 0.22959
1.98460 -6.64184 0.00000
5.27567 -12.37722 0.14890
-5.82973 -8.59485 0.35157
-2.05059 -6.86455 0.01500
-3.95343 -7.33215 0.15000
-1.16184 -14.43235 0.56538
0.31678 -6.81843 0.01500
-3.20538 -8.37235 0.68068
7.21109 -12.97675 0.15536
5.86926 -4.85298 0.00000
-4.01109 -7.89553 0.30000
6.87013 -12.41781 0.15859
-4.43848 -7.41325 0.27000
-0.21536 -5.64960 0.01500
4.77251 -4.88779 0.02810
-3.40079 -10.31013 0.15000
-5.83096 -10.61769 0.23609
-4.54890 -13.88388 0.03000
-7.63096 -10.36334 0.04462
-3.37554 -9.91303 0.27000
-7.13096 -9.36061 0.01883
-0.21501 -5.34668 0.11500
1.19904 -5.68880 0.11792
6.41198 -7.17235 0.10355
5.98404 -14.21300 0.72207
-1.55911 -5.97235 0.17481
-1.99598 -12.49332 0.01500
-1.90444 -6.58834 0.00000
-4.68573 -10.49650 0.40500
3.89842 -12.77512 0.18296
5.53564 -6.88716 0.09580
2.35503 -5.02835 0.07147
0.90752 -12.37997 0.03000
-5.70234 -10.72871 0.36000
1.58030 -12.80618 0.00000
-1.55967 -13.77937 0.01500
0.53256 -7.06803 0.01500
-2.23413 -14.43235 0.22560
6.04903 -7.03063 0.10929
6.95114 -12.75685 0.00000
4.20506 -5.28174 0.12958
-4.73054 -4.78316 0.00000
4.87624 -5.66320 0.01500
6.98479 -12.75588 0.08307
3.77425 -13.44186 0.05151
2.94204 -14.06385 0.09046
-4.47936 -7.51914 0.28500
5.35288 -12.04735 0.10843
6.21080 -6.82209 0.09442
-6.71096 -8.39485 0.10873
-3.20289 -9.73058 0.28500
-2.29736 -4.76002 0.11500
-1.89093 -12.67732 0.11840
-4.50533 -12.65785 0.13500
-7.70053 -10.80985 1.13161
2.08058 -7.18735 0.47347
7.89895 -12.77947 0.00000
3.77369 -14.46235 0.05410
0.91063 -12.30767 0.00000
-3.10165 -8.37235 0.26255
3.74586 -14.37456 0.01500
-1.68461 -14.09633 0.03000
-4.59804 -8.88292 0.27000
3.84606 -6.36789 0.00000
-2.42936 -7.17235 0.48058
2.10043 -12.74755 0.01500
3.62670 -13.01660 0.28427
-5.53792 -10.68286 1.46853
-7.60519 -8.99316 0.27000
-2.16124 -9.46994 0.16500
5.98404 -14.20113 0.83995
-6.91675 -10.19194 0.04953
6.67597 -12.03235 0.22095
4.48004 -6.57235 0.12727
-4.83096 -6.05264 0.28410
-2.94456 -10.81735 0.30855
-5.74868 -9.99194 0.02014
-1.08772 -4.78442 0.21500
7.14684 -5.95735 0.46133
6.56738 -6.53880 0.09573
3.71553 -4.75735 0.10606
-4.43760 -5.02204 0.11500
4.69157 -11.98235 0.90455
2.73213 -13.26235 0.19133
-4.56258 -12.30151 0.13500
-4.03052 -9.36653 0.15000
-3.66083 -7.11403 0.29412
3.61521 -12.46940 0.18965
-1.79677 -12.38693 0.01500
1.87167 -4.99859 0.03675
6.53242 -6.39572 0.13812
-3.61596 -6.03519 0.29468
-5.12548 -9.51921 0.42000
-4.23097 -10.22457 0.03990
7.79148 -12.03235 0.59714
-2.24947 -12.51984 0.01500
2.23015 -5.95735 0.04016
-3.83378 -13.61904 0.01500
-7.88470 -9.84871 0.15643
-4.49395 -11.32465 0.28500
-1.75103 -12.50431 0.00000
3.89269 -6.55428 0.00000
-0.64316 -13.91444 0.01500
3.58404 -6.87520 0.27824
5.62582 -5.95735 0.10450
-4.78096 -5.70091 0.03042
5.80519 -14.08298 0.01564
-1.60351 -6.10994 0.11500
-7.13096 -10.67510 0.09816
4.98216 -13.10207 0.24367
-4.25632 -8.72751 0.42000
0.58410 -6.99440 0.21500
5.98710 -5.97642 0.01500
-3.61596 -6.68978 0.22918
-6.43096 -9.24115 0.05631
-3.60284 -13.23235 0.27932
-3.67759 -12.13235 0.26122
2.31192 -4.75735 0.58882
6.46111 -7.18735 0.07790
5.02877 -4.80710 0.00000
4.60443 -7.18735 0.04796
5.63053 -6.52366 0.08876
0.27032 -6.76139 0.01500
-0.15374 -6.93694 0.01500
-4.84596 -6.67296 0.32042
7.55501 -7.12235 0.08900
-4.67511 -10.44770 0.40500
-5.22387 -10.24806 0.42000
-4.71821 -9.84127 0.28500
3.76041 -12.44462 0.00000
3.53904 -12.73802 0.40190
-3.05407 -14.02841 0.00000
3.37650 -14.47314 0.01500
-5.52543 -8.89485 0.04678
1.60493 -12.53626 0.01500
4.64561 -12.23565 0.00000
4.75613 -6.16270 0.05933
6.31191 -13.05319 0.00000
1.57825 -13.92611 0.00000
-4.72412 -11.17481 0.30000
2.94482 -14.21553 0.01540
4.27304 -12.72715 0.07591
1.57610 -4.84979 0.01500
-0.99517 -7.18735 0.49805
-3.50856 -5.97235 0.23813
-1.83097 -5.88747 0.13207
3.16740 -5.18366 0.13032
-4.69296 -9.05663 0.40500
5.99904 -13.42455 0.23474
-1.09438 -12.74643 0.00000
-2.60954 -10.25871 0.16500
-1.07237 -7.17235 0.14747
-4.97846 -11.44389 0.28500
3.56394 -14.46235 0.22752
-3.99641 -9.28133 0.28500
3.94217 -13.23419 0.26190
0.36740 -5.95735 0.58990
-7.73096 -10.67174 0.43696
-1.38534 -12.81239 0.01500
-2.30417 -12.16300 0.00000
-3.45969 -13.27852 0.01500
5.98404 -13.51787 0.33638
-7.25458 -8.37985 0.50671
-2.74114 -4.75735 0.13553
-7.40099 -8.78948 0.00000
3.55404 -12.77986 0.56868
-3.17541 -13.61090 0.01500
-5.29557 -8.93557 0.15000
-1.90254 -10.81735 0.21853
-2.05930 -5.36400 0.00000
6.92329 -12.23495 0.01500
-4.82655 -11.74854 0.27000
-2.96376 -5.65435 0.01500
-6.95347 -9.83856 0.10000
-3.03097 -10.15926 0.24294
8.38836 -7.09036 0.01500
4.02245 -6.79038 0.01500
-3.47523 -5.78428 0.01500
5.90075 -12.42570 0.04780
-7.77379 -8.32985 0.48084
2.77960 -13.65347 0.15859
6.57971 -7.18735 0.05155
2.08302 -4.81537 0.01611
4.25721 -6.77335 0.15914
-2.93215 -9.40790 0.23600
2.18165 -5.40560 0.06417
2.26538 -6.06945 0.01500
-3.67631 -12.44422 0.15000
1.83735 -12.44472 0.00000
6.24425 -12.04735 0.03950
-1.15623 -6.53297 0.18254
-4.88136 -10.51353 0.42000
-3.49464 -14.31373 0.00000
0.39331 -7.17027 0.01500
4.25119 -13.93244 0.00000
-5.13096 -8.33551 0.15313
4.08479 -12.06303 0.11500
-3.21503 -10.59844 0.30000
3.59904 -6.54142 0.44298
2.36903 -12.49872 0.02502
-3.61596 -6.94397 0.03507
8.38406 -7.17235 0.49937
-1.32722 -4.93896 0.13199
1.19285 -13.26235 0.38373
2.28215 -5.97235 0.41217
-4.11086 -7.33586 0.15000
-4.33479 -10.70919 0.13500
5.44891 -14.09579 0.03404
-5.53096 -10.68942 0.10519
-3.92687 -10.73555 0.15000
7.13027 -6.46129 0.14710
-2.81034 -14.44735 0.18191
5.92318 -13.83968 0.19881
-4.65695 -8.26937 0.13500
-5.88474 -8.74208 0.27000
4.10343 -14.47735 0.04521
-8.36674 -10.52257 0.02726
6.00211 -7.17235 0.04713
-4.04788 -13.31318 0.00000
-0.96567 -12.05033 0.11500
-4.17483 -9.35007 0.30000
3.66001 -12.70526 0.28750
5.25644 -12.83312 0.27492
-7.85128 -9.39854 0.14985
-4.36142 -11.01321 0.13500
4.14373 -12.27423 0.01500
4.57672 -6.67454 0.02117
4.49708 -13.26235 0.02964
3.88728 -5.11497 0.01500
-8.15806 -9.96603 0.08318
3.85753 -14.45846 0.01500
-4.83270 -9.70235 0.06878
-5.03096 -11.40068 0.02552
6.04294 -5.97235 0.36932
-0.09558 -7.18735 0.41394
-2.99990 -10.19184 0.18000
7.37352 -7.08064 0.01500
4.67558 -6.19813 0.05330
1.20680 -6.59619 0.01500
-5.13096 -11.51643 0.28500
-4.85483 -10.18867 0.43500
-3.98357 -10.20653 0.27000
-4.48409 -7.07663 0.16500
-7.53096 -8.65116 0.35943
0.05917 -6.24713 0.01500
0.01115 -13.21580 0.11500
8.24627 -6.03480 0.03082
6.61903 -6.23917 0.06960
0.51129 -12.14372 0.03000
-3.93096 -11.33403 0.37955
1.83218 -7.12235 0.04449
-4.46881 -7.29849 0.30000
-3.94413 -6.84380 0.16500
-0.86502 -12.52832 0.03200
6.02201 -5.99863 0.01500
5.80834 -14.09502 0.09193
6.39404 -6.71524 0.11257
-2.79425 -5.22379 0.00000
1.57173 -12.00235 0.12359
-0.06754 -12.01735 0.61100
3.95320 -12.10196 0.06338
6.28221 -13.03241 0.09322
-3.94596 -5.50283 0.19264
7.20773 -7.17235 0.06796
-0.72648 -12.28859 0.00000
-4.53820 -11.45802 0.28500
6.61196 -6.51065 0.15731
1.40332 -14.46235 0.38689
-2.41810 -13.12230 0.01500
-5.02598 -9.31161 0.42000
4.92306 -12.97554 0.23736
6.26875 -12.16778 0.16500
-3.27407 -10.81735 0.59875
5.91939 -4.81093 0.00000
-1.05010 -14.44735 0.41961
6.94896 -12.99176 0.03699
6.55283 -12.87060 0.15536
6.04480 -12.04735 0.06933
-1.64562 -5.03113 0.01500
4.46519 -12.72547 0.28750
-7.83096 -9.33572 0.05880
6.46291 -5.99259 0.01500
5.86649 -7.17235 0.32477
7.14551 -7.18177 0.61500
-0.66588 -6.52507 0.11500
6.00540 -12.22632 0.15536
4.64395 -6.42883 0.11511
3.55404 -12.06806 0.05374
4.30151 -6.79863 0.01500
3.40061 -5.97235 0.51372
8.09308 -12.04735 0.26070
-3.75537 -9.38131 0.28500
-5.75650 -10.29194 0.06581
-1.26730 -12.53330 0.01500
-5.93096 -9.25553 0.03976
1.15676 -13.20071 0.00000
-0.00621 -6.39032 0.00000
-3.23389 -13.89385 0.09947
-4.68469 -8.82002 0.42000
-7.63096 -10.37979 0.01543
6.88066 -13.08926 0.13382
5.96005 -12.13669 0.15859
4.27441 -12.43533 0.26117
-4.22268 -10.52814 0.35294
5.55152 -12.76870 0.09011
1.88028 -6.78449 0.01500
-1.21874 -12.78199 0.03000
-4.96267 -9.49799 0.42000
4.17302 -5.75062 0.01500
-7.11824 -10.12987 0.18000
5.46810 -6.87479 0.12943
-4.37693 -14.07567 0.03000
-4.11445 -7.35813 0.13500
-3.41510 -13.50620 0.00000
1.97978 -5.10731 0.01500
4.86922 -6.02235 0.06548
7.02394 -5.97235 0.16545
1.80715 -14.47735 0.59397
2.35584 -7.12235 0.49311
-2.83096 -8.39168 0.58344
5.23151 -4.74235 0.15868
5.26681 -12.04735 0.16634
3.26260 -13.45713 0.08319
2.31904 -6.76907 0.05238
3.58404 -6.84251 0.10596
-5.39456 -8.49736 0.42000
3.78875 -7.18735 0.21978
-4.27001 -8.94139 0.15000
-2.69006 -4.80735 0.05983
-5.08032 -8.12685 0.30000
-4.83096 -12.38492 0.51782
-8.05773 -9.03005 0.11006
0.84386 -12.06735 0.06071
3.53472 -13.24735 0.31023
-4.66583 -5.31732 0.11500
-1.00819 -14.08773 0.03000
-4.19313 -5.57966 0.01500
-3.12030 -5.95735 0.20935
-3.10996 -14.26011 0.01500
1.18404 -5.05372 0.49284
-4.83096 -6.47222 0.39289
-5.32743 -9.17384 0.40500
-0.05626 -14.30370 0.03000
3.52800 -5.62230 0.01500
-2.59104 -8.38063 0.61500
4.33172 -5.28953 0.00000
4.43715 -11.98235 0.11795
-0.04814 -12.02014 0.00000
5.99903 -4.79538 0.50930
-5.95502 -10.20834 0.27000
5.77928 -12.03235 0.36546
-0.72067 -12.51744 0.01500
5.69834 -13.77524 0.17850
1.39293 -12.01735 0.09642
3.64520 -6.02235 0.45805
0.81311 -6.02235 0.15644
-5.93096 -8.73044 0.26729
2.94228 -4.92756 0.00000
-3.75123 -8.70220 0.27000
6.56049 -6.02235 0.14599
4.43139 -14.02426 0.15536
8.36904 -12.95942 0.14057
-0.77960 -12.97185 0.01500
4.60873 -6.96228 0.01500
1.66993 -5.50134 0.01500
0.56431 -6.92630 0.11500
1.15741 -12.01735 0.05045
-2.37753 -12.23037 0.03000
-0.50963 -6.98961 0.00000
6.84471 -13.26235 0.60462
4.54215 -13.09709 0.00000
3.59904 -6.95876 0.03992
-1.20751 -5.90735 0.03937
-4.83096 -13.05867 0.16445
-3.68587 -13.59361 0.01500
0.60453 -7.17235 0.08718
2.93030 -5.97235 0.59880
-4.45915 -9.74643 0.13500
4.58094 -12.03235 0.37953
1.07738 -7.10735 0.08114
4.58969 -14.38724 0.15027
6.09688 -7.10488 0.01864
1.32738 -5.71036 0.01500
5.09638 -14.46235 0.00475
-0.26873 -12.12867 0.01500
-0.10862 -12.71344 0.01500
1.24904 -5.32992 0.09286
-1.88759 -14.40858 0.03000
4.02434 -14.46235 0.07561
6.78367 -12.04827 0.01500
-2.11818 -13.40011 0.12954
0.70434 -7.03002 0.11500
3.62127 -11.99735 1.09720
-4.75526 -10.62084 0.42000
-7.53096 -8.44871 0.33574
4.22006 -6.78268 0.02811
-0.05947 -12.70386 0.00000
-4.42519 -10.60470 0.42000
7.74962 -6.57305 0.01500
2.00977 -12.75599 0.01500
4.83914 -12.34714 0.15859
-4.83096 -7.09637 0.33674
6.10031 -13.24735 0.06568
7.46320 -12.03235 0.20446
-7.63146 -8.49485 0.08142
5.88551 -14.54235 0.13227
-1.50353 -4.84639 0.11500
5.48886 -6.85159 0.10834
5.78464 -13.77524 0.18707
-4.39749 -12.13057 0.23189
-4.46544 -14.44735 0.34209
2.37030 -14.14780 0.15859
0.13396 -12.74511 0.01500
-2.06836 -9.44360 0.16500
4.54981 -13.78982 0.15859
-2.31711 -10.12715 0.13500
8.10544 -13.24735 0.06109
-3.61596 -7.17219 0.44047
-4.29428 -13.74554 0.00000
4.04581 -6.57235 0.05646
-1.94709 -9.28871 0.13500
4.18451 -14.22651 0.00000
-5.44740 -10.29194 0.12356
-1.63577 -13.17258 0.11500
-3.81565 -6.91218 0.13500
-4.41858 -11.71114 0.15000
-0.81191 -12.63040 0.01500
3.31718 -13.24735 0.38993
-6.05294 -8.85602 0.00000
-4.44342 -6.01894 0.13500
3.56904 -12.18258 0.20307
-2.65301 -13.23235 0.32032
4.59549 -12.92917 0.05534
6.43971 -13.08285 0.14165
-3.98270 -12.87664 0.13500
-4.86273 -9.66938 0.42000
4.98409 -6.52060 0.01500
-2.05448 -12.01735 0.20002
-4.84596 -5.99026 0.14938
5.76169 -5.90735 0.05140
-3.47009 -13.23235 0.52442
4.13552 -7.17235 0.06330
-4.46407 -5.32443 0.11500
-4.51962 -8.23864 0.15000
-4.23072 -10.53781 0.30000
1.43961 -12.50118 0.00000
0.79316 -12.01735 0.17877
-1.61120 -6.68553 0.11500
-6.37982 -10.39194 0.01710
5.99904 -13.75346 0.92183
0.94224 -12.06735 0.08525
5.47554 -12.33015 0.15859
5.60905 -14.36829 0.13351
-1.26650 -12.49481 0.03000
-4.25377 -9.36535 0.13500
-4.49473 -10.52680 0.43500
-4.31160 -13.24269 0.01500
-5.14596 -8.09710 0.66412
5.99904 -13.37096 0.30055
4.75324 -6.80403 0.01500
2.44891 -5.34492 0.03536
1.90447 -14.04410 0.01500
1.16904 -13.84087 0.04854
2.66748 -5.04920 0.04217
5.87006 -5.06737 0.04881
-1.33269 -12.89302 0.01500
-7.63096 -8.58726 0.02293
2.64209 -13.48784 0.15859
-3.97937 -12.28959 0.13500
-8.23596 -9.70335 0.04677
-5.82970 -9.99194 0.15171
5.52139 -7.09998 0.09962
0.29737 -13.10243 0.01500
6.60276 -12.76511 0.14850
-1.07240 -6.44915 0.14776
-7.33642 -9.39485 0.09313
-1.78025 -14.43235 0.09256
-5.70401 -10.19194 0.00371
4.61533 -13.35767 0.08181
-3.88067 -5.90735 0.10058
-6.77779 -10.76954 0.05000
-5.14596 -8.31831 0.45337
-1.35773 -5.59361 0.01500
-7.88877 -9.24272 0.13980
-6.16252 -9.09485 0.16542
-4.84596 -14.39542 0.55404
5.45087 -14.47735 0.13787
8.13936 -6.27763 0.09588
3.66872 -14.47735 0.32886
-8.00474 -8.88275 0.10873
-3.93096 -11.74599 0.28502
-1.85008 -6.13392 0.00000
-6.39565 -8.39485 0.38771
-4.82388 -12.07462 0.19500
-1.55957 -12.93841 0.01500
4.98684 -13.08926 0.03651
4.24839 -5.34235 0.05095
3.27214 -5.82683 0.06672
-4.45985 -4.80735 0.06824
-7.42649 -8.79485 0.11706
5.51505 -13.93975 0.15807
-3.61596 -12.77809 0.14321
-5.01606 -7.55278 0.28500
-7.59723 -9.39485 0.08037
0.88404 -6.96779 0.17045
3.48343 -14.35329 0.15536
-4.40477 -8.16237 0.28500
5.33405 -6.39720 0.09265
-4.00574 -9.43017 0.13500
-7.82223 -8.49485 0.18095
-5.38476 -9.70235 0.23379
-4.81757 -8.38735 0.05624
-2.01664 -10.47071 0.15000
0.68816 -12.96838 0.01500
5.99904 -14.14446 1.05520
1.83893 -12.73688 0.03000
3.26260 -13.62166 0.15601
-2.38096 -7.00355 0.05929
5.98404 -14.05627 0.08559
3.50458 -14.08938 0.14263
0.16245 -7.12235 0.18110
-2.60587 -8.92208 0.15000
-5.14596 -7.90023 0.62227
6.27583 -6.51294 0.00000
3.59904 -6.58490 0.23676
3.63066 -12.03235 0.48726
-3.42753 -5.85158 0.01500
-6.13096 -10.08962 0.01252
2.38404 -6.06595 0.38514
-4.78096 -14.37290 0.03670
-4.25199 -7.35432 0.15000
-5.53096 -9.04475 0.14579
-3.86927 -10.80235 0.17408
4.29482 -12.46672 0.00000
7.43976 -12.53208 0.01500
4.30026 -6.65615 0.08031
-5.09006 -11.69062 0.27000
-4.59105 -14.43235 0.01828
1.27507 -6.46845 0.00000
-2.87429 -4.80735 0.02428
1.51827 -13.91652 0.00000
-3.20952 -8.38735 0.42298
-3.30718 -14.44564 0.01500
4.74048 -6.88897 0.01412
2.69096 -4.75735 0.31046
0.02369 -6.30137 0.01500
3.40742 -13.38741 0.01500
-4.82636 -13.27844 0.11500
-4.32524 -9.75757 0.43500
-2.43096 -12.56369 0.54577
8.29101 -5.97235 0.35588
2.31904 -12.22287 0.08427
-3.09748 -9.04502 0.15000
-2.05674 -13.46538 0.13000
-1.31322 -7.17235 0.57452
-5.98678 -10.80985 0.34440
-1.61271 -12.12278 0.00000
1.74077 -6.54210 0.11500
7.04904 -13.23484 0.11500
2.33970 -7.17235 0.57563
2.04445 -6.98109 0.01500
-7.77851 -10.80985 0.17810
2.72580 -5.35735 0.04776
-8.10523 -10.73592 0.03004
2.62861 -13.49703 0.15859
-3.68979 -5.98884 0.15000
4.94999 -13.36952 0.28427
0.53821 -7.17235 0.05599
-4.04192 -12.82261 0.15000
-5.43096 -8.65498 0.20668
7.25641 -6.42417 0.01500
5.99904 -13.49895 0.37158
-2.24170 -13.16735 0.09531
-6.46062 -9.29509 0.00000
-4.37855 -13.66183 0.01500
-5.67028 -8.39485 0.42262
3.55392 -13.19735 0.27658
8.39904 -5.95743 0.12805
-4.41964 -10.64006 0.28500
-4.40526 -10.05369 0.40500
-4.63534 -7.21268 0.15000
5.58981 -13.73635 0.27754
-4.62451 -8.32953 0.15000
5.00479 -5.10961 0.00000
7.45728 -6.40472 0.00000
-4.16562 -9.62061 0.15000
-4.88096 -10.71736 0.04276
-5.63989 -10.39194 0.05192
-3.61596 -6.39904 0.41661
8.18495 -6.14884 0.00000
-2.00380 -5.74143 0.01500
1.19904 -5.63002 0.32218
5.70335 -12.85475 0.15859
-2.35198 -8.66789 0.15000
-0.66264 -12.73950 0.00000
-5.56980 -10.29194 0.10547
-5.33096 -8.98673 0.39598
4.20606 -5.49776 0.04975
-1.05425 -6.36888 0.11500
-2.49994 -13.30133 0.04561
4.61533 -13.44223 0.27798
1.56973 -5.71689 0.06500
-7.73096 -10.02029 0.10904
-6.71831 -10.79485 0.01188
2.62422 -14.23194 0.15859
7.96817 -12.87667 0.00000
4.86004 -12.92624 0.28750
5.27059 -14.25071 0.09514
3.91295 -12.27161 0.15536
5.78834 -7.18735 0.38504
-4.30524 -13.61897 0.00000
-7.87186 -10.73026 0.65724
-5.43035 -9.10381 0.28500
-2.62450 -5.95735 0.28993
-2.95702 -13.83347 0.01500
-1.90379 -8.93122 0.13500
-2.05810 -9.56181 0.15000
4.72977 -13.30279 0.15859
-3.61596 -6.64653 0.05022
4.08667 -6.05357 0.06606
-0.48800 -5.92579 0.01500
4.96574 -13.44186 0.10746
-2.44596 -6.43110 0.58287
5.01256 -6.85095 0.07892
8.27764 -5.97235 0.06835
-7.28914 -10.29194 0.18966
-3.34158 -13.55600 0.01500
3.55404 -12.30352 0.80015
2.08327 -12.36412 0.03000
-4.84065 -9.58736 0.13332
-4.56519 -8.36908 0.28500
4.50753 -13.43648 0.00000
0.52064 -12.49558 0.03000
-4.63277 -7.93135 0.30000
5.71221 -6.57163 0.14955
0.06602 -6.06630 0.01500
4.58969 -12.99406 0.10845
-3.46628 -5.15385 0.01500
6.62053 -6.46934 0.01500
0.80351 -5.97235 0.04888
8.16835 -6.56485 0.08889
-4.76572 -7.05701 0.16500
2.10011 -14.18305 0.01500
-3.64034 -10.58418 0.13500
-4.46546 -9.30826 0.13500
5.54112 -13.77524 0.13297
-5.63096 -9.36884 0.02247
1.27516 -6.32886 0.01500
-7.47536 -10.29194 0.22757
7.41581 -6.57165 0.00000
-3.64475 -10.32924 0.27000
5.48586 -14.52735 0.14750
2.36526 -13.44186 0.01988
0.93404 -6.69823 0.14557
-4.02982 -12.75377 0.13500
-4.42793 -5.66477 0.11500
5.17460 -6.11798 0.00000
6.91486 -12.74947 0.14746
-4.18536 -10.82729 0.31500
6.00920 -7.08941 0.11500
-5.93096 -9.30969 0.03818
0.44368 -12.11671 0.00000
-4.42204 -9.09194 0.40500
-6.74208 -9.64318 0.00000
6.93895 -6.17021 0.06911
-3.61596 -6.40514 0.52102
-4.83096 -4.80194 0.44733
-5.24934 -8.47751 0.42000
4.61993 -12.43533 0.05958
6.60477 -5.97235 0.36511
4.28581 -12.34114 0.00000
-4.23096 -10.75795 0.11480
-2.43096 -14.28102 0.10801
-3.37740 -5.46169 0.11500
-0.88499 -12.66014 0.01500
2.36904 -6.54115 0.10367
3.57520 -12.63323 0.11500
3.55686 -12.15818 0.61500
4.05860 -14.25144 0.00000
6.67377 -13.26235 0.20766
2.36904 -5.71240 0.04873
-2.61239 -14.15896 0.01500
-5.24236 -9.50657 0.15000
-4.44401 -9.17270 0.13500
-3.27462 -9.04039 0.28500
-4.52266 -7.50695 0.28500
-4.27798 -12.53358 0.15000
7.87939 -13.19735 0.03814
-6.28895 -10.79485 0.23788
-1.44824 -14.44735 0.36395
2.44642 -5.95735 0.03515
4.26272 -14.35036 0.08738
-7.37042 -10.79194 0.02179
4.94503 -14.35278 0.24525
4.53640 -5.90735 0.04944
-4.79457 -10.01281 0.40500
5.10169 -7.14798 0.11500
-2.83308 -5.67572 0.01500
7.89145 -7.18735 0.31678
-3.60596 -5.75287 0.17619
-5.41185 -10.73703 0.13500
-0.28491 -12.55490 0.03000
1.28131 -6.71099 0.01500
5.47147 -5.59672 0.14406
-3.13096 -9.62675 0.22705
-2.12607 -12.01735 0.35357
-3.61596 -6.38019 0.14400
-4.88096 -9.01236 0.39950
-3.90574 -12.87861 0.15000
-2.76730 -5.10048 0.00000
-3.63343 -10.80235 0.40970
7.56440 -7.01556 0.00000
1.64206 -12.89184 0.01500
-4.07438 -9.35186 0.27000
-4.87310 -9.68926 0.43500
-1.22356 -12.34617 0.00000
-8.07150 -9.58085 0.09084
5.97066 -4.75735 0.23425
3.59904 -6.10783 0.45479
-1.62480 -12.73859 0.00000
4.55697 -12.03235 0.10692
6.07777 -13.20158 0.01500
-4.71493 -14.14561 0.01500
1.87389 -6.87088 0.01500
5.96903 -12.48560 0.09579
-4.03711 -10.89558 0.33000
-6.13096 -8.93394 0.07798
3.81836 -13.92900 0.01500
7.49617 -6.29262 0.01500
1.49234 -6.99439 0.01500
-0.01596 -4.89412 0.48439
-3.89576 -13.23235 0.02598
-0.90644 -4.74235 0.47698
-2.96538 -13.21735 0.37746
2.28074 -5.77671 0.03762
-7.73076 -9.09485 0.04392
-3.91596 -10.99338 0.18690
-4.76891 -10.62610 0.28500
6.63404 -6.83914 0.02570
4.64930 -14.46235 0.47226
-7.83096 -9.05510 0.04270
0.49680 -5.95735 0.07133
-4.47444 -11.26552 0.15000
-4.84596 -13.28076 0.20932
-3.93485 -4.83714 0.01500
-4.23097 -9.17448 0.31514
2.00476 -14.04748 0.01500
-4.26788 -8.04176 0.15000
-3.81558 -8.62001 0.15000
6.94896 -12.91779 0.13940
-0.97379 -6.16247 0.01500
5.15744 -13.44186 0.15338
5.28208 -14.35844 0.10478
-0.68721 -7.12235 0.16037
-1.94035 -13.17006 0.00000
-3.96519 -9.15016 0.28500
6.93366 -6.84356 0.07703
-4.84596 -6.65115 0.39710
7.26420 -6.24184 0.01500
1.79661 -12.05863 0.01500
-5.70467 -8.79485 0.17712
-4.02510 -14.41419 0.01500
-4.84596 -14.10377 0.14761
-5.75152 -9.99194 0.11318
-3.38476 -10.00137 0.30000
-3.91633 -14.13167 0.13000
7.52555 -7.17235 0.05187
-4.40106 -5.69683 0.01500
4.43994 -6.96393 0.01500
7.21178 -12.03235 0.35028
0.07519 -12.01735 0.09691
0.45024 -7.02767 0.01500
1.50681 -13.21073 0.01500
-2.93097 -8.98000 0.11999
1.20109 -4.75735 0.42671
7.34020 -7.17235 0.07394
5.25644 -13.36337 0.06222
5.98404 -14.29727 0.39105
-1.14505 -12.01735 0.54931
-2.50474 -9.58735 0.11991
-6.93096 -9.19215 0.04795
5.09544 -14.54235 1.05995
-4.55387 -9.14844 0.43500
5.52330 -13.10676 0.01500
3.55404 -13.12595 1.13236
-0.42739 -14.43235 0.22892
-4.62001 -13.08806 0.16500
2.25534 -6.57958 0.01500
-2.20233 -14.38235 0.06199
-4.31188 -13.67351 0.13000
-7.13096 -8.90681 0.06133
-0.21829 -4.93879 0.01500
1.86592 -6.82958 0.00000
5.00381 -13.87817 0.28427
-3.71990 -10.49727 0.13500
8.26173 -5.95735 0.60060
-1.94493 -5.58856 0.11500
8.34904 -6.82960 0.09850
5.99904 -14.14807 0.51363
5.61546 -12.79515 0.13490
4.27778 -13.32001 0.08604
5.60905 -12.68409 0.08306
3.55404 -12.64245 0.41212
5.43127 -6.48055 0.07720
-4.75347 -11.57504 0.15000
-8.18931 -9.04877 0.05928
3.53904 -13.04127 0.42011
-7.23096 -8.43361 0.13502
7.14317 -6.20279 0.07784
-4.20872 -8.41779 0.30000
5.40234 -12.10195 0.05550
-3.93096 -10.84690 0.56758
-0.37924 -14.39545 0.01500
-4.35976 -14.24215 0.03000
2.00907 -5.68653 0.12594
-4.85665 -9.33983 0.43500
4.74887 -12.59978 0.01500
-0.50104 -4.92655 0.01500
-1.37864 -6.79880 0.11500
-3.63096 -6.78364 0.15232
-2.38530 -13.45988 0.01500
-4.18464 -12.79614 0.13500
5.99904 -13.77258 0.74403
-2.43096 -7.18470 0.02668
5.99903 -5.33710 0.59279
-2.43096 -13.30223 0.00867
5.82498 -12.66543 0.01500
1.14984 -12.80313 0.00000
4.92306 -12.78712 0.25062
5.29527 -12.03235 0.47368
-4.56701 -11.83024 0.13500
-3.55792 -5.80347 0.00000
3.55404 -12.85470 1.19557
-5.31044 -8.39836 0.42000
-4.23843 -10.80235 0.11453
-2.08194 -5.48085 0.11500
-2.93899 -8.61784 0.19500
4.21024 -5.00824 0.00000
2.36534 -14.46235 0.27280
-2.45391 -10.10205 0.15000
2.95751 -5.46759 0.09926
0.31748 -12.30159 0.00000
-4.81445 -9.14717 0.42000
5.70763 -12.76229 0.16447
-0.29771 -14.43235 0.09090
-4.23437 -8.00388 0.28500
-6.47322 -8.39485 0.39730
-4.63779 -8.65921 0.40500
1.59471 -5.75036 0.01500
-6.13487 -9.39485 0.01374
-1.30619 -5.31120 0.01500
-5.73096 -9.90688 0.06205
-7.68096 -8.37644 0.13685
-1.66018 -14.44735 0.26587
-0.91255 -12.08943 0.03000
5.55276 -4.75735 0.47422
6.25656 -12.74430 0.07214
4.76696 -13.56328 0.01500
3.91784 -5.75403 0.01500
1.49404 -5.60560 0.05291
8.36904 -12.51595 0.30238
3.85464 -5.09500 0.00000
-0.35149 -12.15067 0.03000
-1.39358 -7.17235 0.48928
-6.63096 -8.47385 0.01424
-4.83096 -14.05478 0.30512
-4.07542 -14.38644 0.01500
2.26775 -5.97235 0.40090
4.26913 -12.40584 0.07984
1.44861 -14.19874 0.00000
0.21278 -6.00735 0.02772
-4.61297 -10.89355 0.28500
-3.78668 -13.05723 0.15000
2.29269 -6.68292 0.11500
6.98200 -5.97235 0.22000
-1.33109 -12.51767 0.03000
-6.32280 -9.47300 0.00000
-5.05586 -11.96140 0.30000
-3.91596 -11.70143 0.42227
8.39904 -6.20132 0.38715
-2.48676 -13.57646 0.01500
5.60826 -6.80303 0.09187
-1.44652 -6.22792 0.00000
3.24503 -14.25684 0.01500
-4.41561 -10.31878 0.43500
3.22881 -14.08297 0.13599
2.95424 -14.08297 0.09908
3.84225 -12.10195 0.05829
4.58969 -13.21907 0.26962
-4.78434 -5.97235 0.16112
4.92306 -12.19624 0.07054
1.73228 -12.38047 0.03000
-2.39629 -9.17046 0.15000
-0.54744 -4.74235 0.47544
5.23017 -13.97979 0.00000
-0.76567 -6.14495 0.11500
3.13493 -14.47735 0.23785
4.11091 -5.12282 0.01500
-3.89427 -9.18126 0.28500
4.19296 -6.00973 0.11500
-0.84913 -7.18360 0.61500
4.81209 -7.17235 0.06784
-4.76493 -10.81735 0.30524
7.35431 -6.22184 0.00000
2.58854 -5.28181 0.00000
-7.23096 -10.64098 0.09245
3.47235 -13.75921 0.15977
-7.56955 -10.72039 0.00000
2.38404 -12.77961 0.51910
6.28221 -12.53577 0.07741
-0.42805 -7.17235 0.43776
-5.25699 -9.91948 0.43500
-4.86967 -7.86014 0.27000
4.44585 -12.57275 0.28688
-0.01596 -5.81831 0.02297
6.59129 -12.69931 0.05613
7.40184 -7.17235 0.37143
4.22082 -5.43664 0.17193
-2.66213 -14.19772 0.01500
-4.26859 -11.64664 0.30000
7.12362 -12.96761 0.00000
-4.22948 -9.37878 0.39131
-3.64598 -4.74235 0.12663
7.31262 -12.03235 0.43661
2.59548 -14.33125 0.15859
4.97403 -13.21168 0.28750
-3.83966 -6.32510 0.15000
4.55848 -5.57507 0.09395
5.15253 -6.53172 0.10868
-0.70420 -12.16393 0.01500
4.59610 -12.66703 0.11848
4.58494 -12.29884 0.00000
-6.00830 -10.80985 0.17513
4.61365 -13.92170 0.19119
-3.54024 -10.80287 0.75000
-2.23390 -13.35319 0.03000
4.15558 -6.66786 0.07621
2.35434 -14.46235 0.04006
7.67018 -6.24024 0.00000
-6.97021 -9.55420 0.00000
-3.29391 -5.07893 0.11500
-7.32738 -10.50207 0.00000
3.58404 -7.00559 0.01800
-3.80540 -9.46348 0.13500
-7.71191 -8.40774 0.54070
-7.17406 -9.92155 0.00000
-2.47350 -9.89436 0.15000
-4.27962 -10.62971 0.27000
5.16751 -4.89332 0.01500
-2.43096 -7.05440 0.23439
3.07063 -4.86837 0.03031
7.14867 -12.88300 0.15859
6.97989 -13.26235 0.58398
-0.03096 -14.15566 0.54521
-0.63405 -5.42345 0.01500
-4.68537 -14.44735 0.03351
3.58404 -6.39507 0.48367
5.84632 -6.55735 0.04190
-4.20548 -7.87211 0.15000
3.55404 -12.86874 1.20756
3.90255 -6.87864 0.00000
-0.12815 -14.11051 0.01500
-2.81674 -8.83980 0.16500
-3.54702 -9.83029 0.27000
-6.13096 -10.36640 0.08382
-7.71544 -10.59560 0.00000
3.91568 -6.63736 0.07357
-0.03096 -13.88184 0.02332
-3.97980 -13.23235 0.10663
-5.73096 -8.78163 0.09242
-0.45738 -6.05870 0.01500
0.39467 -7.05173 0.11500
-3.82838 -10.81735 0.15201
-6.25485 -10.02328 0.10000
-7.73096 -10.66163 0.35278
4.38780 -12.83297 0.15859
5.87540 -4.75735 0.08232
-0.42435 -5.60588 0.11500
2.27056 -6.36223 0.11500
5.93838 -12.39366 0.05480
-4.23043 -6.84940 0.15000
2.30998 -5.83352 0.00000
4.99753 -14.52735 0.51741
-2.84798 -10.80235 0.39539
3.84727 -13.44186 0.05363
-7.32267 -10.28806 0.00000
1.41330 -4.80735 0.09853
-4.87986 -9.82155 0.27000
-3.02252 -9.60235 0.06038
-4.93074 -11.56611 0.28500
4.56011 -13.01301 0.00000
2.27681 -14.13356 0.00000
1.56880 -12.49956 0.01500
-3.60922 -10.80235 0.26977
2.33626 -12.14845 0.01500
-4.77503 -9.11632 0.13500
-4.18445 -12.48679 0.15000
-0.03096 -5.28316 0.25545
-7.12965 -9.70551 0.00000
-7.53096 -10.32135 0.01848
-2.22736 -13.32164 0.03000
-0.01596 -5.92836 0.61211
-5.43096 -10.73663 0.41378
-1.62125 -12.40905 0.03000
3.05587 -5.26633 0.01500
5.53423 -12.44690 0.15859
-0.09185 -13.79903 0.01500
5.27886 -14.46235 0.23756
5.05383 -7.01243 0.00000
5.30644 -13.26680 0.11500
3.53904 -13.15376 0.36435
1.37487 -7.17235 0.41461
-7.53096 -9.30445 0.01318
1.43799 -13.16735 0.10462
5.69548 -14.52735 0.29942
-6.60191 -8.39485 0.55642
-7.68096 -8.34750 0.29543
3.87985 -6.57235 0.14351
-4.23725 -5.61459 0.00000
-0.66447 -5.95735 0.17599
-4.38005 -9.62148 0.27000
5.61410 -14.45177 0.01500
-4.88096 -10.16522 0.24938
1.31606 -5.97235 0.12230
0.85773 -13.20463 0.01500
-3.59432 -9.69060 0.27000
1.31294 -12.58202 0.01500
4.53624 -12.44174 0.03809
1.06686 -5.95735 0.16976
5.67915 -5.65916 0.04578
6.60921 -12.16296 0.00000
3.60135 -7.00790 0.00000
-7.63096 -10.64061 0.28157
5.72079 -12.03235 0.30249
-3.66486 -5.08045 0.01500
-4.80392 -9.62846 0.13500
-4.31713 -7.65975 0.13500
-7.47933 -10.39194 0.09587
4.23952 -5.15188 0.11404
0.37301 -12.73552 0.00000
-2.10003 -13.89240 0.03000
7.41032 -6.93030 0.06743
-2.42499 -6.02186 0.31500
-7.43096 -8.90805 0.25427
4.99973 -5.08048 0.03150
-1.11756 -4.74235 0.21664
7.02565 -12.04735 0.39518
-2.59168 -14.14437 0.01500
-7.35874 -8.39485 0.12742
-2.83073 -5.16718 0.11500
-1.04835 -6.50640 0.01500
-3.08531 -14.44735 0.14228
-4.37109 -11.30853 0.28500
-3.35426 -5.90735 0.09149
-1.73196 -6.47461 0.11500
6.10399 -12.52233 0.01500
-4.89372 -9.95330 0.13500
-4.53229 -9.96409 0.42000
-2.32048 -13.21364 0.01500
4.33440 -11.98235 0.56459
6.41234 -12.44174 0.13799
-1.36005 -6.66609 0.13105
7.71823 -6.40024 0.15731
5.35827 -4.74235 0.50986
0.35802 -12.18901 0.00000
3.83440 -12.80623 0.28427
-4.64549 -12.86070 0.15000
1.97371 -12.65562 0.00000
-5.40847 -9.17154 0.42000
-4.08625 -12.58844 0.15000
0.15086 -5.95735 0.08628
1.81615 -5.05025 0.15731
4.15453 -5.47396 0.08609
5.40938 -13.10849 0.10018
-4.66027 -7.71404 0.13500
4.28196 -12.51657 0.26489
-1.13833 -13.53554 0.01500
-3.12751 -5.23929 0.01500
3.59904 -6.02441 0.06590
5.11670 -14.16327 0.28427
-3.97682 -7.79130 0.27000
4.20267 -6.71954 0.00000
4.11846 -4.88875 0.09011
8.41404 -6.91106 0.26759
-2.01156 -4.75735 0.07958
5.31907 -14.52735 1.17248
-2.28238 -10.40550 0.15000
8.36904 -12.82494 0.48946
2.85336 -14.10221 0.14588
-5.63096 -10.01913 0.15401
4.20606 -5.48981 0.11506
4.68473 -12.48591 0.28427
-7.31599 -9.79526 0.10000
5.24074 -6.68851 0.01500
4.11333 -7.12235 0.11161
5.30947 -7.18735 0.50606
3.56904 -12.98551 0.23695
0.38948 -7.17235 0.39079
6.78734 -6.55736 0.01500
-4.88232 -10.52015 0.27000
5.58772 -14.54235 0.76815
-4.82913 -10.45764 0.28500
2.75789 -13.24735 0.29027
3.53904 -12.81060 0.11313
-3.23358 -13.91172 0.03000
-8.04591 -9.28549 0.11323
-5.96481 -8.76258 0.00000
-6.73846 -10.26167 0.00000
-2.77199 -9.92066 0.13500
-4.19830 -10.88124 0.15000
-7.12504 -9.41374 0.05000
