# .PCD v0.7 - Point Cloud Data file format
VERSION 0.7
FIELDS x y z
SIZE 4 4 4
TYPE F F F
COUNT 1 1 1
WIDTH 1843
HEIGHT 1
VIEWPOINT 0 0 0 1 0 0 0
POINTS 1843
DATA ascii
-7.11038 0.01710 0.27532
-10.76096 -7.59840 0.10447
-9.89596 -1.57219 0.52406
-8.29858 -2.96365 0.29755
-5.50733 -6.11552 0.13000
-8.16803 -6.73778 0.09189
-11.51096 -2.49282 0.11747
-10.26097 0.63200 0.11691
-0.53418 0.45602 -0.00446
-8.71899 -6.59365 0.19341
-10.06795 -4.14700 0.12000
-1.30622 -6.43885 0.28750
-3.62999 -0.48365 0.03571
-2.64824 -7.06155 0.01500
-9.73416 -5.46844 0.15000
1.99703 -0.35297 0.09609
-7.65113 -5.67307 0.42888
-1.61086 1.19086 0.19228
-2.41096 -6.80212 0.01821
-6.06587 -6.67469 0.60158
-0.15727 0.09635 0.13738
-10.44958 -2.97865 0.26545
-2.94319 1.27101 0.06301
-10.96175 -2.18618 0.42000
-1.05710 -7.04246 0.26580
-0.13131 1.34562 0.87091
-10.01527 -1.11493 0.12000
-1.27052 -5.35865 0.93957
-5.09025 -0.25646 -0.00000
2.11346 -6.54238 -0.00000
-9.56096 -3.57081 0.23092
-4.54240 1.76842 0.05966
-6.30553 -0.54865 0.50961
-5.76411 -5.40865 0.28778
-12.21096 -2.51654 0.03346
2.26755 0.46338 0.04799
-3.43584 -7.12589 0.05990
-1.02268 -0.07068 0.26735
-3.25118 -6.89360 0.02160
-10.00231 -4.28031 -0.00000
-9.96694 -4.75019 0.25500
-9.23869 -3.29471 0.28500
-2.64922 -7.82950 0.01500
-6.56880 -0.00033 0.24927
-2.31405 0.08253 0.59785
-7.09253 1.88135 0.61622
-11.10945 -3.50395 0.40500
-0.22913 1.91135 0.34730
-4.64706 1.18243 -0.01500
-3.59596 -6.08731 0.37405
-6.43393 -7.49044 0.52548
-6.93178 0.65094 0.20561
-10.48859 -4.19759 0.27000
-7.75162 -0.54865 0.78681
-1.20433 -5.48382 0.15859
-10.47201 -5.16424 0.27000
-1.87253 1.87073 0.24407
-1.14290 1.82719 0.36012
-0.84827 -7.91865 0.53256
-10.82596 -0.28167 0.53177
-8.07743 1.13701 0.08564
2.38904 -0.30797 0.22453
-0.38393 -7.21655 0.11679
-0.12990 0.13343 0.01261
-5.99854 -5.45865 0.04060
-13.81096 -2.47827 0.15583
-13.51903 -3.66824 -0.00940
-1.40037 -5.80521 0.01716
0.84217 -5.81285 0.15859
-2.23677 -0.14740 0.63139
-9.28150 -6.89801 0.01500
-14.10676 -3.14132 0.06103
-2.54237 1.32167 -0.00000
2.40404 0.15220 0.47498
-0.72372 -6.18365 0.19332
-0.74932 -5.59976 0.15535
-1.46237 -0.36809 0.46598
-10.12998 -1.53818 0.12000
-3.57008 0.68135 0.59185
-12.53679 -3.78654 0.03500
-13.61096 -2.54647 0.12530
2.04055 0.42787 0.00574
-1.54878 0.16147 0.38646
-10.05957 0.10296 0.13500
-13.58922 -3.66824 -0.01410
-0.88639 1.74672 0.37088
-9.70001 -2.49202 0.28500
1.27653 -6.41949 0.09501
-2.44096 -5.79873 0.20747
-11.74757 -2.17115 0.24462
-13.67999 -1.90101 0.46622
-12.05811 -2.84637 0.03500
-9.89596 -5.07615 0.40632
-11.09568 -4.31765 0.12000
-2.41096 -5.93017 0.01858
-0.94700 -7.83865 0.60956
-7.26768 0.66635 0.50279
-9.51952 -2.91998 0.27000
-10.20494 -2.41365 0.19399
-12.21871 -2.37115 0.04042
-6.24101 -0.06653 0.05791
-2.29814 1.12448 0.07112
-7.43730 1.27444 0.22326
-9.68165 -7.07682 0.01500
-6.73799 1.71258 0.44454
-4.69696 1.08286 0.05049
-8.62298 1.53141 0.10000
-8.05709 -0.49749 0.50713
-5.10912 0.54238 -0.01500
-2.30395 -6.72285 -0.00000
-6.65260 0.03384 0.16819
-10.36656 -6.70980 0.01500
-13.68441 -1.70615 0.46668
-0.40644 1.43244 0.64200
-6.41460 -6.77792 0.52782
-1.57528 0.40008 0.48266
-6.80929 1.86635 0.68599
-7.43880 1.73688 0.11933
-3.89873 0.74635 0.04298
-6.84324 -0.06114 0.32280
-8.14127 -5.58561 0.58208
-0.76595 0.64354 0.16118
-2.65757 1.91135 0.15301
-13.61096 -3.63277 0.14903
-8.05850 1.86635 0.07990
-13.80850 -4.18615 -0.00962
-0.13148 -6.68403 -0.00000
-1.64352 0.59821 0.44598
-10.95728 -2.02256 0.39000
-3.61096 -6.55119 0.15050
-6.75137 -0.48365 0.34931
-6.51772 -7.46147 0.51856
-10.93966 -2.86798 0.27000
-8.60326 -2.76289 0.13500
-0.94835 -7.72761 0.28750
-10.54001 -5.96651 0.12000
-1.19202 -5.43163 0.11500
-10.61891 1.40841 -0.00000
-12.42673 -2.77042 0.03500
0.08301 -6.42851 0.02141
-7.14320 1.15503 0.43949
2.38904 -5.42806 0.53574
-2.07655 -5.63490 0.43426
-6.17565 1.86635 0.31343
-0.71731 -6.23310 0.13529
-1.78550 1.04738 0.22886
-11.81096 -3.42664 0.09608
-6.74203 0.86015 0.44346
-4.22348 0.27814 -0.01500
-8.22036 0.96353 0.04734
-8.24607 -3.02254 0.13500
-3.18512 0.98997 0.06424
-2.67891 0.68135 0.14807
-10.42580 -7.80865 0.34792
-2.41096 -5.47704 0.59195
-8.36909 -5.75408 0.46873
-3.67637 -7.13230 0.06957
-0.74049 -5.42365 0.09403
-6.17060 1.77289 0.57820
-8.34113 -7.06092 0.05338
-12.31096 -2.06540 0.07354
-1.74679 -6.84162 -0.00000
-2.42596 -6.10814 0.25404
-1.25729 -0.09818 0.29283
-9.00616 -3.15107 0.13500
-2.34056 0.23034 0.68451
-7.64024 -7.35879 0.19941
-3.97518 -0.38105 0.10000
-3.40396 -6.81816 0.10232
-7.57903 -7.03794 0.21866
-12.20038 -2.77115 0.02499
-10.82596 0.52796 0.02049
-10.63145 -0.27701 0.15000
-7.97153 -6.53330 0.55213
-5.95116 -5.40865 0.10217
-7.16308 -6.63865 0.21584
1.16934 0.39898 0.01348
-6.35832 -6.63865 0.41754
-9.84393 -3.44232 0.27000
-8.65957 -2.21899 0.15000
-4.22300 0.12680 -0.00000
-9.61096 -6.04942 0.29864
-5.30207 0.45845 0.10000
0.60978 -6.30798 0.13600
-2.17023 1.88928 0.16430
-1.76413 -6.91704 0.15535
-2.36096 -7.62882 0.03261
-9.92825 -3.65929 0.27000
-1.05313 1.68437 0.36009
-4.38939 -6.28269 0.01500
-6.53819 -0.23604 0.10014
-7.05412 -7.80865 0.66440
-0.41282 1.15121 0.44487
-1.31998 0.33284 0.44899
-1.55644 -5.48123 0.17369
1.76656 -0.32502 0.11606
-10.20538 -4.16793 0.30000
-11.11096 -0.72172 0.56845
-10.82596 0.75620 0.26596
-10.65693 -7.00417 -0.00000
-7.07224 0.68135 0.27114
0.75008 -6.46961 0.05991
-6.16755 -6.25441 0.06875
-12.34630 -2.77446 -0.01500
-8.00710 1.42307 0.08895
-5.56358 -5.87047 0.01500
-14.12243 -2.20395 0.07236
-6.96719 -7.82365 0.85224
-7.66741 1.72926 0.19550
-11.41096 -2.41459 0.03936
-10.12116 0.35137 0.12000
-2.19761 -7.79754 0.15859
-10.60952 -3.09639 0.13500
-12.35745 -3.98106 0.08500
-4.26418 0.34201 -0.01500
-1.09881 -7.72489 0.00000
-8.28732 0.39725 0.56882
-0.22213 1.48172 0.56723
-10.28870 -1.69803 0.27000
-10.26797 -5.08937 0.12000
0.01904 -7.67203 0.02193
-0.16779 0.63305 0.04090
-9.12414 1.56206 -0.00000
-0.23048 -0.26065 0.03956
-13.72972 -4.18615 0.85326
-3.25188 -7.45927 0.02024
-8.15762 0.63635 -0.00426
-5.78045 -6.57971 -0.00000
-1.33695 1.42275 0.28405
-5.09883 0.68135 0.57438
-6.99967 -6.02332 0.13527
-8.91675 -3.83031 0.18000
1.12440 0.06008 0.01628
-6.16587 1.81237 0.38812
-7.50538 0.61635 0.59688
-6.46610 -7.28173 0.53239
-4.30796 -0.54865 0.31246
-7.90352 -0.02888 0.50338
-9.67890 -6.14349 0.13500
-7.19698 -7.80865 0.77733
-10.66999 -3.87760 0.25500
-11.38102 -2.47708 0.40500
-7.38943 1.13068 0.47704
-9.02628 -7.80865 0.26794
-4.10553 -0.53365 0.09451
-9.39634 -7.80865 0.08659
-10.81096 -5.46030 0.26569
-0.37203 1.18770 0.59788
-5.96096 0.16065 0.00194
-9.52546 -3.06144 0.12000
1.70192 0.59963 -0.01500
-0.05115 -7.76630 0.02783
-13.28110 -2.30272 -0.01500
-10.53596 -3.71206 0.13500
-0.68023 1.62589 0.52009
-0.05915 -6.13218 0.05420
-6.80086 -0.53365 0.38694
-3.31142 -7.47850 0.07408
-9.81749 0.90775 -0.01500
-2.25675 -6.27616 -0.00000
-6.66084 -6.63865 0.34120
-6.05307 -7.54958 0.65186
-3.67992 1.29635 0.09903
-10.66864 -5.85862 0.13500
-4.02271 1.29635 0.05090
-0.19362 1.52107 0.59040
-10.81096 -7.70237 0.46664
-9.24407 1.88135 0.05765
-7.24431 -0.48953 -0.01500
-2.42596 -5.80734 0.82445
-11.64407 -3.68073 -0.01500
-6.23750 -0.40759 0.01958
-0.13884 0.16531 0.06905
-11.46843 -1.75615 0.19957
-6.12429 -6.65865 0.65457
-7.06645 -6.69488 0.33763
-3.30834 -7.83865 0.49481
-2.59135 1.62380 -0.01500
-9.63596 1.51916 0.18146
-6.59962 1.86635 0.95727
-3.21561 -7.46568 0.10648
0.00404 -6.78265 0.15448
-4.03134 -7.25398 0.00000
-9.18553 0.78778 0.10000
-0.19421 0.89590 0.57471
-8.60356 0.69076 -0.00000
-7.66253 1.78579 0.19681
-7.18073 1.41933 0.32591
-10.18699 -3.32666 0.28500
-5.35769 -5.98936 0.03000
-12.01096 -3.86980 0.06956
-3.15451 1.28886 0.14433
-11.63089 -1.86050 0.34500
-4.55411 1.91135 0.14093
-5.10253 -6.57012 -0.00000
-6.31414 0.65135 0.98331
-12.25146 -2.77115 0.00539
-10.82596 1.49829 0.28725
-4.49931 -5.39365 0.27002
-0.22555 -0.25658 0.05376
-4.40680 -6.63865 0.01679
-0.70565 1.30299 0.55704
-3.28597 1.07365 0.06387
-9.61096 -5.71181 0.12806
-6.35938 -7.29284 0.45360
-9.10966 -2.96365 0.45128
-9.48682 -6.68598 0.01500
1.00793 -5.80226 0.16500
-8.37729 0.60745 0.59073
-6.36921 -6.16273 0.06987
-4.25911 -0.27978 -0.00000
-1.66989 -7.83779 0.00000
-4.05150 1.31135 0.05520
-10.72865 -4.96494 0.25500
-0.64063 -7.91865 0.78887
-8.41797 -1.95511 0.13500
-10.82596 1.77436 0.10428
-1.73488 -7.62234 0.15535
-5.16021 -5.40865 0.11035
-6.16587 -7.71004 0.14650
0.25255 -6.28529 0.01500
-8.54944 -3.41634 0.13500
-2.42596 -5.92770 0.58729
-4.52182 -0.00250 0.10000
-1.39047 -7.69030 0.12248
-4.04571 -7.39453 0.01500
-6.78061 1.88135 0.66198
-0.50747 0.65892 0.03304
-11.12596 -4.91818 0.72978
-0.97000 1.47868 0.47727
-8.98688 -7.49509 0.01500
-6.67319 -7.14464 0.45853
-2.91014 -6.99829 0.01500
-2.08372 -0.08230 0.53613
-10.81894 -5.14730 0.28500
-1.93771 -5.91909 -0.00000
-11.69654 -3.93767 0.34500
-4.50899 -5.95225 0.01500
-2.95312 -7.46568 0.02479
-7.53756 1.54734 0.21192
-3.01518 0.68135 0.57314
-4.02683 -7.83865 0.09449
-13.41174 -2.57115 0.08295
-8.34764 -0.20805 0.62238
-1.60812 1.82543 0.21139
-9.26025 0.89798 -0.00000
-10.12056 -7.05024 0.03000
-13.71096 -3.47911 0.04708
1.88560 -5.54181 0.01500
-6.06587 -7.42942 0.35711
1.21175 -0.51865 0.01128
-8.65393 1.62391 -0.01500
-11.61096 -1.95558 0.12147
-7.69936 -0.13737 0.44867
-7.73991 -7.15344 0.17270
1.53134 -6.57365 0.07965
-0.88396 -7.15154 0.09586
-2.04431 0.34864 0.40018
-8.55753 -6.60865 0.27960
-6.11363 1.46953 0.86287
-0.11492 0.85674 0.80973
-1.16086 -6.46555 0.02185
-2.90217 -7.47905 0.04601
-1.37548 -7.43362 0.14879
-6.83126 1.56754 0.31146
-13.35389 -1.97115 0.01179
0.17996 0.25770 0.02332
-11.50456 -2.27115 0.17206
1.27653 -6.38203 0.12852
-2.25313 1.06308 0.02303
-8.23624 -5.58479 1.08884
-2.80882 -7.45927 0.10168
-0.05087 1.56508 0.42706
1.99123 -0.06516 -0.01500
-0.26834 0.05745 0.06523
1.37537 -0.51865 0.17253
-10.81096 0.28520 0.02027
-8.38409 -6.57591 0.32133
-8.46096 -1.82700 0.04787
0.01467 -0.38700 -0.00000
-8.32631 0.36106 0.72019
1.35440 -0.49699 -0.01500
-6.11592 -6.63865 0.53190
-6.28813 0.51957 0.03314
-10.76597 -5.94365 0.00700
-4.86687 0.43272 -0.00000
-0.36960 0.11135 0.18452
-13.00300 -3.26621 -0.01500
-6.50757 -6.89583 0.63417
-0.18643 1.31279 0.63615
-9.51267 -6.65869 0.01500
-1.95517 -0.10812 0.49535
-10.81096 0.66975 0.57190
-0.98883 1.20301 0.50293
-10.18913 -3.62865 0.10992
-8.34464 -6.51817 0.74226
-1.38805 -6.95002 0.01500
-2.33189 0.67619 0.61816
-0.94142 -7.12589 0.34827
1.30978 0.30632 -0.00000
-10.56791 -0.03185 0.13500
-13.77113 -1.96004 1.44139
-0.70136 0.68135 0.12999
-10.04597 -1.17073 0.27000
-1.89979 1.23995 0.09933
-13.51096 -2.05892 0.11610
-6.97476 -6.82140 0.36220
-3.01765 0.81003 0.08296
-1.30100 -6.43055 -0.00000
1.75031 0.63235 0.06212
-1.70683 0.55269 0.59619
-8.29891 -6.58731 0.91292
-4.77234 -0.54865 0.59847
-3.10656 -6.63865 0.10721
-10.56425 -7.39011 0.01500
-4.77929 -6.01822 0.01500
-4.43155 -5.57273 -0.00000
0.58604 0.11035 0.03420
-9.98432 1.86635 0.20817
-1.77584 -7.54065 0.15859
-8.15593 1.09239 0.03070
-10.74543 0.74640 0.10000
2.40404 -0.04882 0.26048
-10.10129 -7.63524 0.00000
-10.82596 -7.76846 0.45169
-9.47668 -7.41013 0.01500
-0.55657 -6.68738 0.28426
0.88488 -0.40577 0.02869
-4.73296 -5.40865 0.10056
-1.68013 -6.48479 0.17170
-7.74662 1.13110 0.14038
-3.13314 1.63208 0.12699
-9.87263 0.71635 0.06920
-2.17515 -6.43566 0.28750
1.71981 0.09635 0.02616
-13.11096 -3.42514 0.16183
-10.24484 0.18398 0.13500
-11.82130 -4.16824 0.10018
0.42563 -6.58458 0.01500
-3.44971 -7.26850 0.00000
-13.87847 -3.74260 0.13773
-8.16987 -4.04770 0.13500
-0.24750 -6.10213 0.15535
-9.88126 -2.76287 0.27000
-10.18596 -2.83979 0.28500
1.29932 0.64635 0.08251
-4.76096 1.07683 0.07080
-2.36960 -7.26704 0.00000
-13.11096 -2.28008 0.02659
-11.07558 -3.63901 0.13500
-3.29781 -6.63865 0.56666
-8.11571 -4.17865 0.29397
-8.30243 0.43849 0.71379
-7.89492 0.91034 0.11617
-0.89951 1.91135 0.37003
-11.08197 -3.87733 0.40500
-6.05458 0.68575 0.59376
2.10450 -5.47892 0.01500
-10.14147 -3.30575 0.27000
-3.23900 1.14799 -0.00000
-7.15367 -7.73685 0.31426
-6.39416 1.86635 0.91789
-7.37535 -7.73792 0.27323
-2.51133 1.89635 0.34149
-10.13557 -1.67442 0.25500
-11.02589 -3.86141 0.42000
-2.07862 1.91135 0.36452
-7.16242 -5.67667 0.28241
-2.42596 -6.54223 0.58669
-8.18452 -0.54865 0.71173
-10.16632 -0.53121 0.24471
-7.91146 -6.56420 0.49864
-7.01828 1.48175 0.36944
-13.17429 -2.07115 0.11473
0.00404 -7.08498 0.37967
-10.15592 -7.82365 0.09399
-6.17963 -6.60865 0.73822
-1.64888 -5.40865 0.15371
-9.48335 0.65135 0.33970
-10.91055 -3.29899 0.25500
-0.80336 1.34949 0.41149
-6.39031 -7.82365 0.81404
-4.11255 -0.33464 0.10000
-2.01867 -0.47459 0.53423
-4.81724 -6.21598 -0.00000
-2.42596 -5.92141 1.13833
-1.49425 1.34313 0.32683
-7.78855 1.81635 0.19343
-11.16487 -2.49139 0.39000
1.17503 0.17990 0.08811
-13.38090 -1.77115 0.04309
-9.94387 -4.22060 0.30000
0.09569 0.67362 -0.01500
-2.30053 1.17866 0.08004
-7.60449 -0.53365 0.48967
-1.49552 0.08235 0.47415
-11.87798 -2.07115 0.00053
-1.54666 -7.26513 0.00000
-3.16309 -7.21997 0.00000
0.96377 0.63046 0.00322
0.45902 0.13870 -0.01500
-8.96469 -3.49566 0.15000
-9.96096 -4.30192 0.64849
-5.96096 0.25884 0.03016
-0.36913 -0.50365 0.11455
-0.36746 -5.47825 0.02836
-10.50794 -6.17989 0.13500
-5.92474 -0.30584 -0.00000
-11.82608 -1.87115 0.14323
-4.43941 -5.39365 0.04605
-9.44905 -1.83743 0.28500
2.35944 -5.44622 0.61500
0.68907 -5.79880 0.09726
-11.58277 -3.56824 -0.00725
-7.55248 1.88135 0.00175
-6.63232 0.99631 0.43895
-1.03145 -7.19698 0.04008
-9.09339 -2.70807 0.28500
-9.89079 -2.54816 0.13500
0.21021 0.69635 0.58099
-13.09057 -2.17115 0.07686
-6.70026 0.50743 0.38802
-9.59596 0.05642 0.22111
-10.55666 -2.18404 0.40500
-7.90829 -6.66787 0.11206
-8.95747 -4.14462 0.12000
-5.95278 -5.96532 -0.00000
-1.88437 1.26040 0.29496
-3.98394 1.40741 -0.01500
-9.01097 -3.43230 0.26399
-7.71037 -0.26201 0.43609
-4.76296 -6.33497 0.01500
-2.62826 1.48491 0.09581
-1.42717 -0.30318 0.33835
-1.75406 1.42885 0.30310
-10.11096 -2.96242 0.37843
-9.59596 -0.45277 0.18314
-7.54009 0.63635 0.09590
-8.24732 -1.79429 0.15000
-12.01096 -4.09740 0.08052
-13.61096 -3.64323 -0.00934
-0.49794 -7.25980 0.15859
-1.32529 1.22271 0.27164
-11.12596 -1.29255 0.46829
-12.61096 -3.81865 0.02427
-9.59596 0.51189 0.04872
-1.41970 -0.14870 0.38360
-13.34608 -2.47115 0.02686
-4.17378 -7.68272 0.01500
-8.23014 0.68135 0.72765
-4.35246 -7.18873 0.00000
-9.32624 -4.11521 0.13500
-9.00600 -3.32782 0.25081
-12.75723 -2.78975 -0.01500
-6.70612 1.86635 0.56615
-2.63109 1.17155 -0.01500
-1.15624 1.79646 0.31410
-10.41382 -7.80865 0.61247
-11.00918 -0.66998 0.27000
-10.13737 -1.95539 0.32111
-10.13766 -6.67570 0.03000
-0.78404 -5.74344 0.15535
-7.52275 -0.54865 0.89748
-2.32271 0.66635 0.12068
-6.20106 0.87941 1.18919
2.22080 -0.50365 0.26068
-6.33354 -7.21964 0.54954
-10.08803 -3.54616 0.27000
-9.17583 -6.93012 -0.00000
-1.25181 1.21276 0.28849
-9.48231 -4.07176 0.12000
-6.88882 -6.12952 0.22463
-5.96096 -5.56695 0.02197
2.38904 0.00140 0.43686
-10.07161 -6.30857 0.13500
-7.99510 -3.70086 0.15000
2.21785 -5.42809 0.01500
0.46552 -5.51028 -0.00000
-2.23538 -5.37365 0.33008
-7.26821 -0.54865 0.42764
-7.83210 -1.76365 0.07236
-1.25664 -6.48479 0.17919
-11.50225 -4.16824 0.23107
-10.82596 -7.73960 0.08595
-4.71996 -7.83865 0.08379
-8.89590 0.80591 0.10000
-3.55638 -6.62365 0.44774
-1.06085 -0.38161 0.24019
-5.96096 0.03964 0.03501
-2.01429 0.04062 0.47415
-0.39602 -7.29000 0.43750
-0.45031 -6.63865 0.06159
-4.37897 1.57151 0.03615
-12.64304 -4.04264 0.03500
1.97656 0.15450 0.06382
-11.51096 -2.01833 -0.00710
-10.08478 -1.76365 0.68866
-9.29596 0.98000 0.11762
-0.56510 -6.43021 0.15535
-1.47086 -0.51650 0.35005
-10.53943 -7.40681 0.03000
-10.57906 -7.00293 0.01500
-7.74666 -5.39365 0.13962
-1.72402 -5.79239 0.19710
-9.60666 -6.65473 0.01500
-2.62349 -7.31790 0.01500
-10.24422 -1.56886 0.28500
-4.50234 0.81717 0.01794
-3.10808 1.73235 0.10684
-1.59789 -5.40865 0.41098
-6.45436 -7.16254 0.53554
-8.63254 1.73802 -0.00000
-6.49691 -5.39365 0.35106
-7.88453 -4.17865 0.15026
-4.53396 0.19907 -0.01500
1.30562 0.14968 0.04237
-8.40321 1.69550 0.07687
-0.43905 1.10506 0.52464
-0.48736 1.17374 0.51169
-9.79893 -1.74865 0.51030
-0.93678 -5.47214 0.16180
0.55220 -6.39186 0.01500
-13.02793 -2.22577 0.16500
-3.61244 0.01875 0.10000
-8.73026 0.69046 0.10000
-3.42977 0.70899 -0.01500
-9.18485 1.81635 0.08282
-3.84195 0.36097 0.10000
-7.11845 -7.82365 0.93249
-9.05575 -7.38158 0.00000
-1.33035 -6.48479 0.30379
-2.30605 1.22484 0.10062
-9.87426 -5.61728 0.13500
-11.91096 -3.27815 0.00821
-0.50836 -7.83865 0.30151
-9.89596 -5.14886 0.49091
-4.49081 1.71317 -0.00000
2.07062 -5.41022 0.01500
-1.30237 -6.37003 -0.00000
-9.73909 -0.26707 0.12000
-3.43134 1.89635 0.36357
-9.66096 -5.53536 0.29671
-7.34715 1.06693 0.28131
-9.59596 -0.44770 0.09430
-8.32917 0.04332 0.78496
-8.35999 1.08735 0.10876
-8.36959 0.37185 0.63412
-0.55351 0.71135 0.35718
-5.08407 -0.19378 -0.01500
-7.80585 -0.48365 0.53611
-4.86936 0.68135 0.14564
-12.37845 -3.01690 0.03500
-9.85765 -3.08400 0.27000
-3.09018 1.89635 0.18374
-8.25911 -2.91353 0.13500
-12.65372 -2.39306 0.03500
-9.62357 -7.79845 0.03000
-2.41096 -7.62847 0.09613
-7.21019 -0.01731 0.29574
-6.34375 1.88135 0.97968
-1.75987 -5.53339 0.28426
-6.67852 -5.48542 0.16828
-13.61096 -2.04142 0.25526
1.35171 0.07944 -0.00000
-7.30152 0.68135 0.12801
-1.95433 0.74635 0.16465
-12.62478 -1.75615 0.49046
-2.60893 -7.78865 0.02992
-11.39406 -1.86365 0.36198
-9.67375 -7.37659 0.03000
-1.00644 -0.47770 0.24748
-2.50907 0.68135 0.05144
-12.11096 -4.13822 0.01340
-11.71830 -2.07115 0.07723
-0.63908 -6.01691 0.15859
-11.12596 -4.68555 0.44106
-5.22890 -6.19925 0.03000
-0.42414 -7.83865 0.20572
-1.56715 -5.35865 0.82066
-11.47007 -1.77115 0.38664
-6.58506 0.35364 0.15010
-8.18612 1.80814 0.04098
-8.17547 -4.09062 0.12000
-8.16579 1.86635 0.46498
-9.45637 1.88135 0.40042
-0.94535 1.91135 0.09950
-10.77836 -6.60865 0.44621
-9.56096 -4.09269 0.06988
-12.13295 -2.27115 0.10007
-7.91096 -2.38856 0.01646
-8.32782 0.43508 0.78999
-9.44248 -1.94090 0.27000
-8.26909 -6.50006 0.19777
-9.34301 -7.82365 0.56499
-9.31578 -7.29214 0.01500
-11.40817 -2.82301 0.40500
-6.36861 0.33352 0.07657
-10.94577 -1.49232 0.13500
-9.58432 -3.51429 0.28500
-11.10963 -1.09865 0.22308
-2.41543 -6.63865 0.02257
-9.40844 0.85449 -0.00000
-6.30869 0.69635 0.29875
-8.16348 -2.01076 0.12000
-9.00110 -7.80865 0.34754
-2.58559 1.26119 0.01895
-0.39035 -7.27376 0.06907
-8.26909 -5.49156 0.08994
-2.21864 0.46075 0.56595
-6.49288 -5.40865 0.70102
-1.94783 -5.47825 0.08348
-4.74911 -6.63865 0.32653
-13.79325 -2.07115 0.33802
-2.05338 0.34648 0.50614
-2.79673 1.48967 0.09453
-5.51921 -0.53365 0.08366
-4.76096 1.15434 0.00542
0.86074 -0.19030 -0.00000
-9.00953 -1.74865 0.56524
-10.28495 -3.61735 0.12000
-10.81096 1.86498 0.35546
-8.62288 -2.82208 0.13500
-0.62593 0.18902 0.26802
-9.96585 1.43851 -0.00000
-11.28458 -2.83643 0.12000
-6.16960 1.86635 0.12830
-6.64574 -7.51059 0.49979
2.38904 0.63228 0.29781
-11.51096 -2.46381 0.08046
-8.05886 1.47041 0.19414
-4.46319 0.92626 0.06270
-0.37753 -7.17638 0.35400
2.23067 0.55705 -0.01500
-0.54228 -7.91865 0.04835
-10.77497 1.01855 0.10000
-10.09382 -1.68020 0.41101
-4.45594 -7.47039 0.00000
-10.16829 -0.47337 0.12000
2.31407 -0.50365 0.20824
-0.20882 -7.47185 0.09193
-10.60128 0.31948 0.12000
-9.83060 -3.66285 0.25500
-1.92746 0.11035 0.56438
-1.87723 0.16693 0.48080
-13.77817 -2.55736 -0.01500
-9.56145 -7.41532 0.00000
-6.62632 1.86635 0.05497
0.42417 -6.15141 0.06514
-6.32717 -7.75885 0.58515
-2.41096 -6.00902 0.08068
-9.08965 -2.96365 0.03288
-10.03696 -7.20595 0.01500
-1.53672 -6.10279 0.28426
-7.86540 -7.80482 0.14192
-11.57762 -1.87115 0.16836
-10.24045 -5.39365 0.12434
1.36114 -6.62365 0.08802
-12.60927 -2.84653 0.03500
-10.19450 -3.63623 0.12000
0.57177 0.71135 0.51623
-6.48017 -7.00771 0.52862
-4.55124 1.76147 0.04176
-8.65018 -6.59365 0.28391
-6.61880 -6.84384 0.49148
-1.97094 -6.12588 0.43750
-4.76096 -7.78672 0.02295
-10.12639 -7.62889 0.01500
-10.77841 -2.14093 0.40500
-2.70474 -7.65006 0.15168
-2.25006 -7.67117 0.01500
-4.50120 -7.23210 0.01500
-11.71096 -1.85286 0.05383
-13.01301 -2.47115 -0.00617
-7.02299 -0.15618 0.26744
-3.80707 1.03462 0.00360
-9.37243 -2.62930 0.27000
-6.89456 -7.36158 0.38369
-5.62254 0.49478 -0.00000
-4.81096 1.26374 0.30333
-6.13514 -5.46705 0.02268
-6.07347 0.30061 0.06572
-1.07913 -0.06830 0.33471
-10.47783 -0.30128 0.13500
-2.92941 1.91135 0.53368
-7.38005 1.60567 0.25413
-6.80344 -6.53811 0.23914
-4.27611 -7.10329 0.00000
-8.41474 1.31968 -0.00000
-6.26853 0.82886 0.55480
-11.81096 -4.16741 0.04970
-11.04865 -4.48445 0.13500
-9.49122 -7.82365 0.56575
-9.91096 -4.78004 0.63268
-11.56614 -1.87366 0.43500
1.44721 0.64635 0.07924
-2.93401 0.69635 0.44641
-0.64890 0.03151 0.29049
0.77821 -6.11588 -0.00000
-10.10375 -1.75734 0.73500
-12.08314 -1.87115 0.11958
-9.89596 -1.28238 0.46484
-1.03145 -6.02283 0.13726
-2.52816 0.88162 -0.00000
-1.64406 -0.14132 0.51314
-9.95776 1.77843 -0.01500
-9.19742 -3.45648 0.27000
-2.38409 -0.06326 0.43639
-7.78641 0.09321 0.45013
-0.96942 -0.21133 0.31923
-3.59596 -5.70239 0.30111
1.13141 0.49333 -0.00000
-6.37571 -6.28800 0.08714
-3.70963 -7.76700 0.10004
-0.93317 -7.91865 0.28555
-8.21367 -7.28126 0.07966
-3.61097 1.60964 0.00825
-10.85727 -1.83325 0.12000
-2.31958 0.88814 -0.01314
-12.01096 -3.91876 0.07715
-12.31096 -3.08251 0.02943
-7.64369 0.60505 0.41189
-14.20498 -1.86356 0.03471
-13.10136 -3.66824 0.11109
-12.18766 -1.81598 0.16500
-10.65222 1.02619 -0.00000
-11.71956 -2.17115 0.07976
-1.80033 0.09635 0.58815
-12.91874 -1.75875 -0.01500
-6.33073 -6.39178 0.07509
-10.61936 -3.19190 0.12000
-2.90629 -7.12589 0.12299
-9.01945 -3.73858 0.12000
-8.87491 1.52632 -0.01500
-9.97906 -4.99158 0.13500
-9.51419 0.66635 0.00954
-11.71096 -3.21025 0.01068
-1.04107 -7.80420 0.02208
-7.02211 -0.11702 0.37073
-13.01096 -3.53260 0.00944
-8.10830 -6.63865 0.00010
-7.38735 0.66635 0.35456
-11.51779 -3.56824 0.02233
-7.06288 0.68135 0.10052
-6.55393 -7.01783 0.49333
-13.93130 -1.82290 0.10805
2.38903 0.11313 0.02544
-10.38281 -1.73378 0.28500
-8.66066 -2.97865 0.38094
-9.82014 -5.50865 0.15492
-10.03849 -0.70293 0.27000
-10.88730 -1.84722 0.42000
-8.18335 -3.11925 0.13500
-8.22141 0.61635 0.93818
1.76931 -6.05777 -0.00000
-0.19855 -7.75727 0.15535
-1.24857 -6.68865 0.07602
-2.05915 -7.47850 0.13482
-5.09052 -5.40865 0.25042
-2.31377 0.10246 0.84246
-2.37136 -6.11498 0.05723
-3.65672 -6.14447 0.01500
-14.15730 -4.14081 0.06302
-13.44867 -2.07115 0.34001
-6.39308 1.86635 0.70106
-6.16587 1.85830 0.23782
-4.03030 -6.78060 0.01500
-2.13286 1.31035 0.08705
-0.82373 0.57027 0.21405
-11.17084 -2.17933 0.42000
-10.80793 -7.80865 0.51454
-5.32201 -0.54865 0.21916
-7.70598 -0.33787 0.45045
-7.81245 1.19039 0.15664
-10.18774 -6.66858 0.01500
-3.25276 1.89635 0.09308
-2.42596 -6.51749 0.39017
-8.16856 -2.96365 0.43632
-8.27550 0.66660 0.01704
-4.81096 -7.75897 0.09170
-10.16402 1.24626 0.10000
-1.03261 0.11028 0.31318
-1.98088 0.71135 0.04623
-2.34519 1.57628 0.01389
1.17503 0.22675 0.04207
-4.51925 -7.83865 0.26276
-7.55467 1.84391 0.32924
0.59029 -6.39978 -0.00000
-11.54515 -1.70615 0.69363
-10.61184 -5.42900 0.19027
-1.19398 -0.51865 0.79532
-2.45152 -7.78314 0.02465
0.23011 -6.46555 0.14055
-0.83410 1.89635 0.78645
-4.41870 -6.01954 0.01500
1.24403 -0.18542 -0.00000
-7.26985 0.65135 0.04827
-7.90543 -2.55164 0.13500
-13.31096 -2.85504 -0.01011
1.66263 -0.35986 0.02409
-9.15239 -3.90565 0.13500
-1.37124 -7.28571 0.14025
-13.63327 -1.87115 0.16830
-6.83497 1.19149 0.55974
-8.20133 1.54740 0.05244
-4.02036 -7.31660 0.00000
-1.40521 -7.12589 0.13268
-7.15693 0.56349 0.40686
-10.91739 -3.35083 0.39000
-1.15006 -7.14054 0.04631
-13.72994 -3.51724 0.16500
-1.24263 1.17931 0.30932
1.60120 0.53391 -0.01500
-0.54304 1.66982 0.56074
-13.95160 -4.08442 0.05084
-0.48981 -0.17664 0.12457
-0.20555 1.33934 1.14797
-0.55344 0.71135 0.31236
-4.16716 -6.19748 0.05507
1.25993 -6.57365 0.04288
-8.03419 0.30807 0.64192
-8.38196 -6.47284 0.60573
-0.37963 0.06132 0.16960
-8.83127 -3.54289 0.13500
-10.96018 -1.93061 0.40500
-8.69791 1.54222 -0.00000
-6.62008 -0.53365 0.32634
-10.85905 -3.98848 0.25500
-8.52464 -1.93429 0.12000
-9.25584 0.72575 -0.01500
-1.80084 -7.85365 0.29056
-0.29914 -7.90365 0.66860
-0.33838 1.73082 0.55161
-0.91389 1.89635 0.62768
-7.08342 -0.44814 0.26177
-10.19154 -2.18429 0.27000
-4.02805 1.36337 -0.01500
-9.04559 -2.48249 0.27000
-10.45068 -7.80865 0.59473
-10.82596 1.39487 0.25724
-10.55005 -2.25511 0.25500
-10.15936 -3.01859 0.12000
-7.57786 -5.39365 0.10305
2.22732 -0.51865 0.48430
-6.06722 -0.05071 0.08904
0.29900 -0.32813 0.03259
-1.76169 1.32914 0.19408
-9.40513 -3.52150 0.27000
-1.21089 -7.14192 0.28814
-5.69779 -6.60865 0.57707
-5.36886 0.68135 0.33742
-7.54074 0.31013 0.36878
-10.80904 -5.49365 0.02623
-10.98616 -1.02576 0.27000
-6.49189 0.43618 0.12513
-6.91247 -0.05569 0.23783
1.93074 -5.94618 -0.00000
-7.75212 1.88135 0.02108
-9.41370 -6.64130 0.11500
-10.76777 -0.29443 0.12000
2.00214 -5.76455 0.01500
-7.38316 1.88135 0.60007
-12.01096 -1.93509 0.12334
0.46035 -5.74482 0.15859
-0.96563 -0.09838 0.21136
-7.81260 0.61635 0.50353
-9.08075 -2.03102 0.12000
-10.47087 -0.60218 0.25500
-8.12151 -0.54865 0.78268
-7.82138 0.81856 0.25777
1.17313 -6.62365 0.00320
-1.74847 1.71247 0.20984
-7.96582 -2.98680 0.15000
-6.78818 -7.82365 0.14044
2.29809 0.42527 0.05820
-3.87585 -0.21067 -0.01500
-2.26417 0.71465 0.13913
-9.35674 -1.76365 0.41105
-10.40979 -2.34128 0.42000
-7.05507 -6.55865 0.37232
-0.91662 -5.79880 0.04164
-8.23171 -6.55829 1.10574
-13.11096 -3.16693 0.03388
-1.60747 0.84938 0.21156
-0.28112 -7.71119 0.15535
-13.81096 -1.93058 0.39769
-6.66966 -6.21539 0.17224
-0.67564 -6.47629 0.20989
1.17503 0.57249 0.00101
-1.33981 1.08217 0.24938
-10.99406 -4.07826 0.13500
-3.12287 -7.03976 0.00000
-2.36495 -7.10337 0.08120
-9.08712 -3.52865 0.03685
-8.06728 1.37066 0.06998
-3.03170 -7.16935 0.13465
-10.92694 -1.74264 0.34165
-0.24279 0.72628 1.09380
-6.72635 0.53868 0.38404
-0.69808 -7.31733 0.14140
-9.85228 -3.08899 0.28500
-6.95623 -7.20521 0.38553
-6.72602 1.55792 0.57898
-3.61096 -0.18074 0.48950
-7.08605 0.09840 0.28433
-11.22438 -4.12892 0.27000
-11.02100 -3.83034 0.13500
-7.17949 -7.13635 0.35677
-4.24895 -7.78865 0.10068
-11.61096 -1.89121 0.15624
-3.66308 1.54164 -0.01500
-1.93643 0.56278 0.49033
-8.83772 -6.60865 0.09748
-13.44868 -1.87115 0.26598
-6.88652 0.36258 0.33440
-4.23178 1.91135 0.21374
-6.75938 0.71145 0.54233
-9.59596 -5.63295 0.04688
-10.20614 -6.08149 0.13500
-8.17164 -6.72794 0.09092
-0.41989 0.06567 0.06845
-2.00470 1.91135 0.63352
-8.18636 -6.12392 0.59416
-13.75130 -4.18615 0.46345
-9.91346 -6.82747 0.01500
-8.27061 -0.16533 0.60174
-2.28133 -6.58377 0.11500
-11.01096 -4.26279 0.04115
-12.91096 -3.17647 0.02067
-3.05094 -7.03404 0.16245
-6.09553 0.80509 0.59832
-1.55954 -0.23810 0.28311
-10.13728 -2.59436 0.31500
-10.82596 1.31671 0.01765
-8.34828 0.69439 0.11659
-2.28907 -6.16288 0.28750
-11.11096 -4.73651 0.27173
-3.62497 1.57535 0.05010
-1.05068 -7.78675 0.12721
-5.71996 -5.54893 0.03000
-4.24471 -7.23128 0.00000
-2.72665 -6.63785 0.61500
-11.52702 -4.17115 0.38693
-11.11096 -0.70483 0.14646
0.01904 -6.74385 0.43944
-6.20664 -0.37689 0.03317
-6.05087 1.28064 0.33562
-8.93277 -3.27861 0.27085
-6.66022 1.23130 0.56890
-11.42482 -2.05031 0.34500
-8.17500 0.66635 1.16452
-6.13687 -6.66241 0.90666
-6.66608 -5.64700 0.14942
-10.25130 -5.98009 -0.00000
-1.54070 0.72635 0.16305
-13.74932 -4.17115 0.37803
-8.97343 -3.80388 0.18164
-8.94676 -3.04597 0.18000
-0.95597 -0.41129 0.24948
-0.16587 0.75285 0.16491
-7.02976 -5.89819 0.18022
-0.76370 -5.40865 0.24553
-1.42618 0.72991 0.26014
-9.01096 -2.57252 0.13277
-8.42597 -6.60325 0.19337
-9.89314 -7.24564 0.03000
-4.76096 1.42345 0.05259
-9.34003 0.65135 0.19934
-7.87063 1.46109 0.00362
-8.69204 -3.75492 0.15000
-6.25418 -7.81423 0.57080
-0.92874 -0.20379 0.24218
-2.43356 1.89635 0.11061
0.03904 -0.09080 0.07312
-6.47668 -5.40865 0.70328
-4.81695 -5.44158 0.03000
-8.56549 -7.80865 0.32758
-6.21314 -6.63125 1.19130
-0.58432 -6.55010 -0.00000
-10.53943 -3.49123 0.40500
-10.00260 -1.47467 0.27000
-2.05722 -5.49434 0.22160
-2.29188 -0.02743 0.59190
-11.39556 -2.24083 0.13500
-1.77027 1.83235 0.20013
-10.44729 -2.71957 0.42000
-2.71115 -7.42813 0.16215
-0.83148 -7.91865 0.15647
-4.05133 -6.24052 0.01500
-0.47332 1.50873 0.60803
-10.11590 -3.34211 0.12000
-2.21989 0.65485 1.13486
-6.33734 -7.80865 0.34267
-13.24273 -1.87115 -0.00436
-7.44955 -7.12439 0.23498
-2.08455 -5.35865 1.10632
-5.58561 -6.24334 0.01500
-1.53543 -5.67809 0.28426
-9.06499 1.26352 0.10000
-13.11024 -1.77115 0.46764
-3.41367 -7.83865 0.53527
-4.98887 -0.54865 0.37980
-0.69915 -6.97704 0.03423
-1.04456 -6.47517 0.12213
-0.12622 0.79340 0.85192
-9.00860 -4.17865 0.00364
-1.44981 -7.32262 0.15535
-14.36645 -3.57912 -0.00855
-12.21096 -3.62004 0.11220
-1.98160 -5.37365 0.95112
-4.57194 -6.26842 0.01500
-10.28463 -3.21354 0.42000
-5.17015 0.61635 0.18327
-10.56570 -2.56472 0.12000
-9.50477 -3.21921 0.25500
-6.12294 -6.32619 0.05680
-6.29154 -6.76091 0.56364
-9.89596 -1.56527 0.19298
-1.22589 0.45974 0.29994
-1.05710 -7.06033 0.08569
-4.66632 1.39433 0.02645
-10.61356 -3.90541 0.25500
-8.11088 -7.80865 0.15745
-1.77549 1.46779 0.24560
-1.94321 -5.46905 0.01500
-0.33009 -7.83865 0.57985
-11.22800 -3.12025 0.25500
-14.14736 -3.18107 0.06568
-0.32610 -7.85365 0.43018
-8.21217 -5.40865 1.09490
-2.41096 1.83392 0.03897
-10.41042 -4.06779 0.39000
-10.77274 1.86635 0.10860
-1.84022 -6.46225 0.09193
-10.04330 1.88135 0.24768
-6.09557 0.24809 0.01894
1.23044 -6.61986 0.01500
-12.62738 -3.33037 -0.01500
1.46529 0.07377 -0.01500
-10.61170 -5.11094 0.27000
-13.49092 -1.97115 0.22266
-8.04032 0.65135 0.10936
-1.86950 -6.60697 0.28426
-6.09905 1.38712 0.80846
-7.95456 1.86635 0.20574
-10.53853 -3.38859 0.42000
-9.65475 -2.28442 0.27000
-4.81096 -6.89681 0.36990
-10.82596 0.23553 0.38219
-0.68713 0.30317 0.31318
-10.65109 -2.86556 0.42000
-10.07422 -7.40758 0.01500
-2.63660 1.45948 0.11815
-6.88423 1.70403 0.37145
-3.68107 -0.54865 0.16994
-0.97782 -6.91926 0.43750
-1.18556 0.19622 0.28914
-0.10382 -0.48036 -0.01624
-1.26935 -6.79252 0.31254
-3.05735 -7.21851 0.10522
-8.19321 -5.72658 0.61153
-11.46713 -2.69645 0.08500
-6.51368 -7.82365 0.06877
1.76104 -6.57365 0.03647
-1.25773 -0.36165 0.31481
-8.96949 -3.83780 0.12000
-9.31694 -3.77823 0.13500
-11.70183 -2.77115 0.01206
-0.01096 -7.20247 0.49504
-6.89062 1.66921 0.38527
-3.65698 -6.22195 0.01500
-6.63246 -7.01597 0.48782
-9.48028 -7.05323 0.00000
-8.91598 -2.17225 0.12000
-6.61350 -6.62365 0.20483
-1.86598 -6.15141 0.01883
-3.61097 1.49694 0.09568
-11.91096 -2.08587 0.02101
-1.90841 -7.15154 0.07304
-7.44878 1.29962 0.22018
-6.14177 0.75796 0.70782
-13.51096 -2.33464 0.10684
-0.17914 0.74636 1.10736
-1.08009 0.16416 0.32818
-4.33246 -0.54865 0.03284
-3.76694 -6.45627 0.06547
-2.16599 -7.20705 0.00000
-8.69927 -3.28854 0.13500
-0.79303 1.84635 0.54896
-0.85998 0.53235 0.27300
-0.71724 -6.81175 0.26563
-1.56821 0.55033 0.45517
-13.85750 -3.28848 0.12782
-0.06353 0.55476 0.10280
-0.50793 0.33856 0.09203
-0.14634 -7.62044 0.43426
-11.68735 -1.87115 0.24602
-4.03113 -5.40865 0.06841
-12.01096 -3.80465 0.12716
-10.60008 -7.15724 0.01500
-11.12596 -0.72227 0.29030
-12.09810 -3.16375 -0.01500
-8.72305 -3.95381 0.12000
-4.66096 -6.62801 0.54405
-4.37547 0.04429 -0.01500
0.47365 0.20610 0.11754
-0.38112 -5.42365 0.29443
-7.20722 -7.33710 0.31544
1.27063 -0.23081 0.00691
-10.15912 -3.16016 0.27000
-0.48803 -7.83865 0.19906
-12.87190 -2.57115 0.06498
-4.49773 -0.54865 0.11799
-6.16168 -6.63865 0.24200
-10.13541 -6.25331 0.13500
-2.17345 -5.48434 0.18423
-7.73576 0.70334 0.28071
-5.59774 -0.54865 0.48123
-2.32953 -0.40365 0.50214
-4.34266 -7.83865 0.07207
-1.93464 -6.63865 0.01779
-13.54106 -3.46824 0.13258
-11.01081 -1.34763 0.25500
-10.17249 -2.75002 0.31652
-11.89040 -3.92620 0.25500
-11.32658 -2.67526 0.39000
-7.34897 -0.53365 0.94543
-7.99904 -5.86825 0.52844
-7.38149 -7.00386 0.27159
-8.35572 0.84677 0.09280
-4.16672 -0.45803 -0.01500
-4.28139 1.08905 0.10631
-10.32559 -2.00684 0.40500
-7.20283 -7.50512 0.30109
-1.75259 1.91135 0.32093
-6.33425 1.27113 0.65625
-10.21194 -1.11478 0.12000
0.68522 0.11135 0.02275
-9.96754 -0.53365 0.15932
-0.66349 1.57044 0.46450
-10.93863 -5.07364 0.27000
-6.12055 -5.61278 0.01877
-2.20846 -6.85400 0.15647
-0.05056 -5.53682 0.08390
-11.07653 -1.94222 0.40500
-10.81911 -1.67648 0.30000
-9.16232 -3.89470 0.25500
-1.69867 -0.49358 0.43296
-11.61096 -4.16635 0.35577
-2.34782 -5.81804 0.12881
-0.71265 0.96955 0.59788
-2.15093 0.88855 0.06594
-1.03842 -6.51043 0.20003
-3.99433 -0.34509 -0.00000
-0.47689 0.94081 0.59788
-7.73509 0.68831 0.28089
-11.43780 -2.75541 0.08500
-9.68043 -6.59365 0.11751
0.99922 -6.28208 0.15535
-0.55306 -6.13218 0.15303
-6.89171 -0.17894 0.41455
-7.83008 -6.47874 0.49870
-10.43358 -1.62852 0.28500
-8.24086 -5.61826 1.07160
-10.79767 -3.74096 0.13500
-10.18576 -4.42629 0.25500
-10.70552 -6.59365 0.50409
-2.49013 -7.85365 0.05877
-10.40338 0.01114 0.13500
-11.71096 -3.90054 0.21054
-8.02995 -6.57865 0.43522
-9.15021 -3.62701 0.13500
-2.32764 -7.45927 0.06094
-9.76471 1.45837 -0.00000
-5.79125 -5.52037 0.03000
-8.25243 -3.57499 0.13500
-10.17901 -1.74865 0.50419
-5.22556 0.48711 -0.00000
-6.72833 1.60819 0.65418
-9.38096 -2.33917 0.28500
-1.41101 -6.37968 0.01500
-9.59860 -2.87391 0.12000
-1.03786 -7.15819 0.26201
-13.74781 -2.93566 0.03500
-7.74106 1.63221 0.17577
-4.28551 -5.44483 0.01500
-11.31385 -3.85719 0.27000
-7.71110 -6.35225 0.42943
-4.28418 -0.50793 -0.00000
-1.74311 -0.09368 0.44486
0.00404 -7.85801 0.89519
-6.06587 -7.48109 0.35362
-6.07773 -6.83925 0.68594
-10.48851 -2.38853 0.25500
-2.37081 -7.44617 0.15859
-6.71452 1.81635 0.64683
-1.39047 -6.17384 0.05922
0.69908 -6.46555 0.14385
-7.22340 1.18599 0.29610
-6.98389 -5.93340 0.27196
-5.96096 -0.47189 0.07755
-1.51560 -7.78865 0.07158
2.22514 0.46090 0.04339
-10.76096 -7.42643 0.10795
-1.73242 0.09517 0.44200
-7.49318 0.35931 0.49695
-13.61096 -3.66186 0.12050
-8.29385 -0.33243 0.91680
-1.61003 -6.15141 0.20569
0.49575 -5.40865 0.15762
0.00404 -6.96642 0.02681
-8.40796 -7.80865 0.41312
-10.22053 -3.64810 0.39000
-0.55563 -7.21943 0.15859
-7.06344 -5.69157 0.29328
-7.56550 -6.06604 0.39041
-2.74715 0.69635 -0.01053
0.01728 -0.23535 0.10000
-0.67412 1.10214 0.59788
-13.41096 -3.97806 0.15369
1.15760 -5.42365 0.13131
-8.48477 1.86635 0.30508
-6.14496 -6.12546 0.00978
-8.97933 -2.22139 0.13500
-13.51096 -4.03925 0.04024
-1.55267 -5.74841 0.28750
-10.64011 1.35476 0.10000
-7.00525 -6.44335 0.26216
-6.89191 -5.95941 0.26285
-12.18967 -3.86824 0.02577
-9.96399 -1.74865 0.13726
-3.00949 1.83291 -0.00000
-10.69466 -2.44278 0.27000
1.00045 -5.81804 0.05750
-7.69461 1.86635 0.69740
-9.91096 -4.69334 0.35146
-13.43233 -3.66824 0.01960
-2.42508 -6.81175 0.04355
-6.11982 -0.14452 0.00357
-9.08752 -6.60865 0.31056
-1.10283 -5.79239 0.13918
-9.78080 -2.87746 0.27000
-9.89482 -2.96365 0.60014
-6.72988 -6.27705 0.16651
0.50308 -0.50365 0.36784
-4.82596 -6.89743 0.41714
-2.37457 -7.75921 0.16162
-0.68886 -6.63865 0.07488
-10.26645 -4.66840 0.27000
-10.72790 -6.06265 0.15000
-9.41554 -4.17865 0.50188
-2.83292 -7.83865 0.24529
-9.12801 -2.59619 0.13500
-10.20568 -1.80046 0.25500
-0.28484 0.96625 0.56596
-1.05357 -5.51200 0.08011
-0.15660 -5.67418 0.01500
-2.46641 0.68135 0.04210
-10.81096 -6.66625 0.02096
-0.46448 0.72635 0.26313
0.25613 -6.23331 -0.00000
-2.72162 -7.27632 0.10106
-2.23535 0.31185 0.61288
0.30924 -5.81804 0.13079
-5.64820 -5.40865 0.46883
-1.14834 -0.16035 0.39739
-10.42111 -3.99116 0.40500
-1.52265 -0.51865 0.83565
-10.15560 -5.50865 0.17681
0.88471 -6.06831 0.15535
-5.10484 -5.75794 0.01500
-4.61287 -6.94819 -0.00000
-6.70928 -5.76425 0.21391
-9.92584 -2.18024 0.13500
-10.67132 -1.45027 0.25500
-2.88317 1.86010 0.10000
-10.32064 -7.82365 0.18013
-0.01096 -5.43936 0.09886
-3.59596 0.09131 0.51183
-9.67641 -4.11264 0.27000
-8.58397 -4.19365 0.07183
0.77695 -0.15128 0.10938
-12.21096 -4.00666 0.02255
-9.23323 -3.80847 0.27000
-8.93897 1.81635 0.06950
-9.55179 -7.82365 0.48202
-7.89328 -7.02860 0.11354
-11.51096 -2.32471 0.24792
-10.73119 -1.52317 0.25500
-4.88102 0.66635 0.10285
-10.29491 -7.48707 0.01500
-6.52965 -6.58037 0.11286
-2.59801 0.83875 -0.01500
-0.68691 -7.14513 0.27735
-13.31096 -3.60197 0.02129
-7.21043 -7.70523 0.33295
-12.32584 -1.77115 0.54931
-11.72900 -2.36523 -0.01500
-2.79262 -7.65907 0.00000
-7.85954 1.75188 0.14402
-0.83831 0.74635 0.41787
-1.25472 0.12186 0.32953
1.51716 0.08134 0.11006
-2.28094 0.87492 0.06101
-9.61096 0.51396 0.31045
-11.32082 -2.38267 0.12000
-12.80252 -3.36469 -0.01500
-0.46401 1.61522 0.49958
-2.05723 -6.00546 0.15613
-6.05087 -7.55607 0.49657
-12.01096 -3.77274 0.09528
-1.19654 -6.48479 0.37191
-4.12581 -5.99683 0.03000
-9.91096 -4.23400 0.61645
-8.15301 1.46776 0.16891
-7.73817 -5.82347 0.45854
-10.47289 -3.32779 0.12000
-10.46564 1.29284 -0.00000
-1.64936 -0.04501 0.41341
-10.82596 0.07024 0.00287
-5.87896 -5.93872 -0.00000
-2.44096 -5.38556 0.35613
-0.31796 -6.71668 -0.00000
-0.96357 -6.81816 0.15045
-11.74598 -3.66824 0.04299
-0.73127 -7.09408 0.00000
-10.38378 -1.25752 0.13500
-9.94087 -6.40924 0.15000
-8.09209 -6.59871 0.56890
-11.41351 -3.96824 0.34862
-6.71657 -0.36189 0.14794
-13.61096 -3.99864 0.12112
-13.15999 -3.66824 0.13371
-10.55665 -2.35002 0.25500
-4.48749 1.62861 0.07437
-11.81096 -3.24680 0.01306
-2.28848 1.14661 0.03507
-0.34120 -0.38094 0.06289
-7.20023 -5.40865 0.63645
-1.59787 -0.50365 0.50078
-7.98314 -6.48496 0.55524
-2.00593 -6.80520 0.20505
-9.95470 -1.13933 -0.00000
-1.82666 1.05912 0.25459
-1.76908 0.96549 0.27961
-1.75126 0.82983 0.17303
-6.11346 -5.54791 0.03873
0.99180 -6.07428 -0.00000
1.85367 -5.42365 0.04600
-8.27811 1.05625 0.13539
-2.37136 -5.67319 0.43523
-8.01563 1.16826 0.08667
-1.63586 -7.85365 0.32150
-12.38807 -3.17115 -0.01379
-8.69873 1.81635 0.04334
-0.24603 -0.50365 0.15448
-7.70416 -0.39858 0.41257
-0.75095 -0.45365 0.24080
-11.71096 -2.28709 0.11255
-3.88361 -0.09512 0.10000
-6.70004 -6.48809 0.15851
-11.39306 -3.00050 0.39000
-8.93920 1.73628 -0.00000
-4.17596 1.60548 0.04034
-9.64411 1.04827 -0.00000
1.43556 -5.43894 0.11500
-9.78562 -7.51962 0.01500
-6.20751 -0.53365 0.35421
-1.27121 -6.81175 0.09284
-8.06655 -5.40865 0.84603
2.28756 0.11226 0.01891
-9.08558 1.56064 -0.00000
-7.38541 0.51726 0.34269
-8.59118 1.14288 -0.01500
-9.59596 -5.72435 0.28047
-12.90787 -2.01650 -0.01500
-2.50876 0.69635 0.12457
-1.61165 -7.14513 0.12095
-11.11096 -1.15219 0.23204
-2.00491 0.69635 0.18592
-11.12596 -4.36425 0.20541
-2.03158 -6.90961 0.05884
-12.67958 -1.75615 0.29835
-1.62535 -5.37365 0.08544
-6.17810 -6.90094 0.59403
-7.90505 -5.39365 0.08166
0.18034 -5.40865 0.51885
-1.57133 -7.83865 0.11558
0.30205 -5.84318 0.05099
-13.28693 -3.96824 0.12433
-7.45566 0.61006 0.36151
-3.40274 1.52356 0.07028
-2.38409 -0.40999 0.35788
-7.35296 -5.39365 0.21641
-0.81524 1.34240 0.54930
-11.05715 -1.84051 0.39000
-11.12596 -5.15183 0.63833
-12.41989 -4.18615 0.33364
-8.26270 -6.59365 0.28100
-10.58479 0.17812 0.15000
-4.18537 -7.85365 0.18468
-7.67278 -6.55865 0.50502
-7.81739 1.56460 0.13694
-6.49829 1.74517 0.61229
-2.31654 -6.63865 0.55577
-6.90847 0.88410 0.38049
-1.38038 1.70134 0.27241
-7.34405 1.69399 0.28215
-6.27856 1.88135 0.45688
-13.51096 -4.06336 0.30672
-3.89710 -7.25879 0.00000
-1.38219 0.74635 0.28566
-3.44055 1.44571 -0.01500
-10.10716 -3.79862 0.28500
0.41766 0.13071 0.08701
-0.51052 1.78416 0.53774
-1.16469 -6.79893 0.32923
-2.11679 0.68135 0.05897
-1.76519 0.54437 0.59788
-0.81904 -6.14034 -0.00000
-1.18169 -6.05103 -0.00000
-6.53300 -0.49589 0.09875
-11.71096 -1.82473 0.14361
-6.42290 0.69635 0.26151
-7.22042 1.61583 0.28137
-8.41993 -6.98724 0.11500
-6.70588 -6.62365 0.08970
-7.41140 -7.80865 0.56719
-1.18852 0.10617 0.40167
0.96357 0.07738 0.07490
-8.73968 -2.33223 0.13500
-4.95598 -5.69706 0.01500
-8.24957 -4.19365 0.08141
-5.04455 -0.54865 0.02156
-8.78209 -1.76365 0.55914
-9.94878 -3.70282 0.28500
-11.74220 -1.77115 0.08938
-8.12889 0.66635 1.10618
-7.63422 0.61635 0.44835
-9.08794 1.38279 -0.00000
-10.35292 -2.03962 0.40500
-7.35035 -6.65216 0.27993
-9.61096 -5.48027 0.42596
-10.31723 1.20420 -0.01500
-7.05473 1.10626 0.35967
-7.22945 1.86635 0.31949
-0.76841 0.18372 0.26318
0.01052 -7.90365 0.88031
-9.94295 -2.73541 0.27000
-7.02035 0.14516 0.25120
-10.52111 -5.09149 0.12000
-6.17472 -7.57818 0.59209
-11.12596 -5.10174 0.52143
-0.84430 0.88925 0.45462
-0.38393 -6.02299 0.05198
-3.92139 -0.28873 -0.01500
-7.09291 -6.60865 0.37611
-3.91521 -6.54042 0.03000
-11.41230 -3.66824 0.05426
-7.15467 -5.52781 0.33325
-3.45676 -6.93511 -0.00000
-10.53860 -3.76050 0.42000
-11.91096 -4.16399 0.06741
-7.36457 0.68500 0.48370
-3.37149 -7.01025 0.09095
-7.40489 -7.72820 0.26247
0.00404 -6.91529 1.14897
-0.64031 -5.80318 0.16500
-1.36149 -6.67991 0.43750
-9.15838 -2.22873 0.13500
-1.31761 -7.83865 0.45529
-0.71469 -0.50365 0.21410
-0.99452 -6.48479 0.11578
-13.71732 -4.18615 1.14757
-8.95232 -2.97865 0.35961
-1.85648 0.93907 0.12931
-11.56827 -1.75615 0.13664
0.81444 -6.28439 -0.00000
-12.90003 -2.37115 0.02802
-8.29098 -3.26953 0.15000
-12.56221 -1.77115 0.33766
-8.33891 -0.52494 0.69067
-6.35094 -0.54865 0.00194
0.59665 -5.81804 0.12191
-9.56580 -3.36954 0.27000
-13.65609 -1.77115 0.24200
-6.33376 -5.71220 0.09776
-7.02422 -6.66122 0.39837
-1.95927 0.63235 0.57018
-8.34526 -0.26180 0.72493
-10.15560 -4.49611 0.12000
-13.66855 -3.25466 -0.01500
-2.04351 0.69635 0.61868
-10.96161 -3.45373 0.13500
-8.73279 -4.02404 0.15000
-10.66731 0.65135 0.35274
-10.33622 -3.73202 0.42000
-8.53563 -1.86335 0.12000
-4.76096 -7.72922 0.07798
-6.11852 -7.75300 0.89613
-2.36720 0.77331 0.11152
-0.63441 -7.85365 0.51335
-2.44096 -6.39134 1.08642
-10.25404 -2.09053 0.25500
-6.56975 -5.56321 0.16099
-0.74158 1.70809 0.42805
2.00223 -0.27956 -0.01500
-1.69943 -7.80470 0.11500
-2.49707 -7.83865 0.51002
-1.01187 1.89635 0.97451
-11.61096 -3.67795 0.00738
-7.38852 1.79050 0.27023
-7.66390 -5.47931 0.45417
-8.43752 1.86635 0.43595
-6.51309 -7.16321 0.50427
-1.22219 1.29635 0.31755
-9.62416 -1.98335 0.27000
-4.48522 -5.87942 0.07057
-11.61096 -4.14969 0.12406
-9.66096 -3.01744 0.02404
-10.55521 -5.29365 0.06339
-3.00156 1.53538 0.03052
-1.64419 1.47253 0.20172
-10.11260 -4.16530 0.35255
-8.20903 0.08791 0.68876
-1.71514 -5.47825 0.06602
-10.19105 -0.44658 0.19688
-8.76423 -7.25978 0.03000
-1.76769 0.39369 0.42959
-10.16919 -1.02033 0.28500
-0.53541 -7.13230 0.10404
-3.95218 -6.06617 0.03000
0.01904 -7.40316 0.24135
-5.15449 0.13436 -0.00000
-0.86171 1.33297 0.52247
-7.14244 1.86109 0.30227
0.00404 -6.78974 0.61278
-7.41201 -5.70336 0.50573
-5.49985 -6.59266 -0.00000
-10.23201 1.88135 0.27174
0.00404 -7.69099 0.05904
-9.02074 -4.17846 0.27000
-4.59480 -0.54865 0.10618
-11.53012 -3.46824 0.09534
1.47473 -5.54754 0.01500
-10.85103 -3.10355 0.42000
-3.66740 -7.46568 0.15198
-6.48914 -0.53365 0.13546
0.58462 -6.52331 0.01500
-11.03593 -5.38339 0.28500
-0.61372 0.69635 0.51344
-8.49617 -6.82633 0.01500
-14.26521 -3.65582 0.01858
-0.32051 1.50330 0.53803
-13.21096 -1.94302 0.03196
-10.75978 0.66900 -0.01500
-4.30844 0.28268 -0.00000
-4.46308 0.56963 0.10000
-1.15326 -6.81631 0.04625
-10.34583 -2.10019 0.39000
-8.65654 -3.92395 0.13500
-10.27156 0.75389 0.10000
-8.98530 -2.88652 0.18000
-10.00334 -6.86559 0.01500
-9.23393 -2.67012 0.27000
-1.78807 -6.25388 0.28568
-10.45760 1.16210 0.10000
-2.36598 -7.58869 0.10526
-2.30066 0.07205 0.60979
-7.42920 -5.47811 0.39128
-6.92161 -0.53365 0.74168
-8.35502 1.57711 0.09022
-5.00691 -5.40865 0.45288
-10.21612 -7.74944 0.01500
-1.55788 -6.63865 0.08059
-6.30762 0.40293 0.06023
-0.67822 0.09748 0.17506
-9.77277 1.23674 -0.00000
-9.98382 -1.74865 0.39109
-5.96096 -6.35667 0.04332
-1.58193 0.29466 0.51369
-7.26092 0.60078 0.30933
-10.21097 -1.84749 0.10387
-2.33850 1.46173 -0.01822
-1.61104 -5.40865 0.56813
-0.70747 0.99088 0.56771
-6.80694 -5.84110 0.22455
-1.65394 -5.42066 0.61500
-4.94087 -0.53365 0.14448
-10.68158 -1.91786 0.27000
-6.74790 -0.44081 0.19373
-5.26260 0.50064 -0.01500
-10.59336 -0.44729 0.16500
-11.41096 -1.82659 0.30491
-0.09121 1.18162 0.72124
-9.59596 0.28949 0.20946
-3.68255 -5.39365 0.12332
-6.81727 0.90336 0.52682
-2.39119 -6.63865 0.49895
-7.48309 1.21536 0.24489
1.04594 -6.62365 0.52969
-9.91096 -1.74108 0.52325
-11.61096 -3.93913 0.20423
-7.89577 -6.59277 0.53183
-0.67911 0.97674 0.46185
-7.06359 -6.28903 0.30885
-8.33565 0.89794 0.01645
-12.33451 -1.77115 0.49231
-7.51133 -6.57865 0.37530
-6.08607 0.03998 0.01869
-4.16169 1.58654 -0.00000
-4.02142 -7.48373 0.01500
-7.82599 -1.82153 -0.00000
-10.27503 1.53661 -0.00000
-5.00425 -0.37165 -0.01500
-7.28013 -0.38863 0.33634
-10.65383 -6.63416 0.03000
-9.05734 -2.35294 0.12000
0.63542 -6.16316 0.09005
-7.08290 -5.40865 0.17488
-4.88546 0.31956 -0.01500
-1.32645 -6.48417 0.29076
-8.40535 -3.75557 0.13500
-10.29725 -2.97865 0.33120
-1.91477 -0.50365 0.99447
-6.17831 -7.50359 0.59398
-7.58833 1.39317 0.18279
-1.04366 0.44784 0.32818
0.63514 0.34856 -0.00000
-6.35272 -7.82365 0.51604
-9.98376 -2.16563 0.28500
-5.21058 -5.94131 -0.00000
2.40404 -5.98392 0.02528
-0.44369 1.37889 0.48950
-2.43051 -6.99221 0.02465
-2.10438 -5.35865 0.96028
-12.16022 -2.62800 0.08500
-10.95277 -4.20173 0.28500
-1.52635 -5.96986 -0.00000
-0.75921 1.89635 0.09939
-11.51096 -4.08471 0.05517
-11.46096 -4.21135 0.22308
-1.21856 -6.08637 0.28750
-6.57006 -5.40865 0.28186
-7.91360 1.54159 0.12954
-2.04777 0.08410 0.68936
-2.42596 -5.80921 0.44677
-3.42821 -7.13230 0.11671
-2.64515 -7.85365 0.42074
-5.02545 -0.53365 0.34177
-7.15874 -6.65865 0.35332
-0.19512 -0.29290 0.04561
-0.72373 -6.49776 0.22107
-0.95279 -6.10002 0.15535
-5.80164 0.64986 -0.00000
-11.53489 -2.58334 -0.01500
-10.46609 -1.69039 0.27000
-9.61941 1.46575 -0.00000
-7.83181 0.61635 0.49939
-6.68568 -7.35176 0.45803
-1.05959 0.88635 0.34000
1.84550 -5.40865 0.21356
-10.91338 -3.63352 0.39000
-0.08077 -5.47365 0.07001
-8.28500 -0.47459 0.89185
-1.23237 -7.85365 0.55863
-8.66217 1.86635 0.56976
-13.66096 -4.20268 0.72342
-12.98686 -3.83081 -0.01500
-2.42596 -6.55576 0.10344
-6.53983 -5.39365 0.35494
-13.00236 -2.57115 0.06620
-4.02910 0.69635 0.01589
-6.68218 -7.51110 0.45896
-0.66324 0.74635 0.56703
-4.81266 0.13259 -0.01500
-9.91096 -0.56949 0.25211
-11.11096 -4.37307 0.55424
-12.91096 -2.26353 -0.00074
-7.94730 -7.00232 0.15103
-8.39822 -7.46927 0.07324
-8.12897 -1.93349 0.12000
0.01904 -7.34777 0.66224
-1.66486 -6.12577 0.09001
-10.03122 -1.64658 0.12000
-11.49005 -1.81030 0.68520
-9.09431 -2.92020 0.13500
-4.69696 1.25487 0.00960
-3.69392 -7.61351 0.00000
-7.63482 -5.98675 0.44638
-6.52550 -5.90125 0.11175
-7.70695 -5.40865 0.11460
-4.32690 -6.41826 0.03000
-9.09275 -2.62219 0.12000
-12.71097 -3.13460 -0.01253
-10.09796 -7.61493 0.03000
-11.71096 -3.80347 0.24661
-0.02833 0.21391 0.04098
-9.77169 -7.80865 0.05596
-7.56487 1.81635 0.41966
0.51900 0.71135 0.09234
-2.79079 -7.85365 0.60212
-0.88583 1.58098 0.50854
-0.81140 1.87996 0.39097
-8.22293 -5.78591 1.13853
-7.84304 0.20790 0.46531
-7.22985 1.86635 0.39783
-2.50532 1.54075 -0.01500
-2.24905 0.32500 1.08397
-1.77583 1.25895 0.24685
-11.11096 -5.13349 0.36794
-7.57621 1.81318 0.20157
-11.46864 -1.70615 0.60075
-2.15968 -6.14500 0.11897
-9.84046 -2.64362 0.13500
-11.04947 -3.95821 0.13500
-8.93038 -7.03720 0.01500
0.00404 -7.45903 0.54328
-10.51308 -0.51766 0.13500
-4.61362 -7.83865 0.16625
-3.86467 -5.45865 0.06447
-12.67125 -2.69297 -0.01500
-7.46262 -6.69711 0.23148
-0.67541 1.36184 0.42741
-2.44096 -5.71611 0.44468
-2.21495 1.31936 0.06992
-4.75095 -0.53365 0.57672
-6.13579 -6.70702 0.62090
-7.88049 -7.03958 0.06583
-8.50222 -2.05148 0.15000
-4.93532 0.17562 -0.01500
2.00316 -0.03695 -0.01500
-1.49602 1.78687 0.20753
-6.15231 -6.10298 0.04914
-4.85025 -0.13092 -0.00000
-1.59498 -5.35865 0.15093
-6.74680 -0.24775 0.17790
-13.28663 -1.85499 -0.01500
-10.87683 -4.27353 0.13500
-6.74539 0.79495 0.54608
-5.04450 -0.53365 0.14247
-8.26115 0.76545 0.03641
-3.48944 -6.68865 0.02932
-1.16647 -6.62362 0.15859
