# .PCD v0.7 - Point Cloud Data file format
VERSION 0.7
FIELDS x y z
SIZE 4 4 4
TYPE F F F
COUNT 1 1 1
WIDTH 1931
HEIGHT 1
VIEWPOINT 0 0 0 1 0 0 0
POINTS 1931
DATA ascii
1.77904 1.76255 0.04649
3.32764 2.49427 0.40500
2.70111 0.83806 0.09784
9.16799 -0.58735 0.02779
11.84904 -1.03898 0.70405
15.15792 -1.34512 0.15226
3.30411 2.81005 0.15000
2.05115 2.36413 0.10000
1.17904 2.40705 0.15263
11.89404 4.82339 0.38934
5.05389 6.63588 0.21500
11.84904 -0.67606 1.19972
14.32334 4.25765 0.36174
6.47903 4.97863 0.21409
4.27240 1.80236 0.75000
11.86404 -1.30247 0.05868
3.46896 0.69993 0.27000
1.07904 2.52740 0.12037
9.20121 5.34622 0.11500
11.05328 6.28757 0.12977
7.09285 5.47265 0.02496
7.00835 6.20448 0.01500
8.01207 5.11352 0.11500
12.53006 5.84200 0.05987
5.66702 6.33771 0.11500
8.27318 5.45765 0.01785
8.93295 5.00673 0.00000
4.32553 3.08834 0.28500
3.97810 6.10516 0.00000
9.75115 6.45045 0.00000
5.41918 1.78937 0.16500
12.34159 6.62131 0.02276
1.49189 0.83515 0.00786
11.53493 6.47832 0.05263
9.67233 -1.43598 0.00000
14.04346 4.30765 0.09261
7.24755 -0.57235 0.58519
5.22256 5.94516 0.01500
11.55513 5.58410 0.00000
2.77588 2.03515 0.01468
5.01193 6.50962 0.21500
2.77526 0.83806 0.27339
10.28377 5.29078 0.01500
11.88150 -0.62812 0.00000
4.63282 2.49265 0.12898
11.22903 6.16065 0.15202
3.33272 2.78374 0.27000
13.65212 4.24265 0.58627
6.72249 5.68075 0.16439
7.58468 4.49181 0.00000
4.17471 1.19462 0.13500
3.87827 1.03535 0.42000
12.57272 -0.97755 0.19826
3.44999 0.03980 0.27000
7.48070 -0.58735 0.31974
3.67109 6.21471 0.01500
-0.00913 0.64394 0.02449
14.57618 -1.30241 0.16425
6.84628 6.45828 0.11500
0.79610 0.62015 0.08147
12.90054 -1.79497 0.14912
12.86122 -1.81735 0.06922
12.87645 -0.66554 0.15510
10.74187 6.38667 0.04633
0.67573 0.93806 0.22216
3.86663 -2.84588 0.01500
9.29012 4.56391 0.00000
7.83117 5.57956 0.01500
3.61414 3.10153 0.27000
15.17267 4.42495 0.11158
5.02609 0.61265 0.29807
6.26420 -2.52910 0.00000
16.61684 4.24265 0.01865
12.28421 5.52265 0.06067
11.69503 -2.34523 0.09322
7.77571 -0.58735 0.43262
8.06213 -1.78536 0.01500
10.02163 -2.86481 0.01500
2.47904 2.64661 0.17372
5.25136 2.47574 0.13500
4.81353 2.08168 0.13500
14.33192 5.52265 0.46260
4.20662 0.43543 0.30000
14.27094 -2.28618 0.01500
1.67107 2.89670 0.05000
8.85778 4.42525 0.01500
11.62235 -2.65296 0.01972
7.42046 5.04319 0.00000
9.50904 6.43231 0.07853
3.16404 0.48927 0.17049
5.09953 1.93478 0.28500
6.27363 -0.86000 0.01500
11.93884 -1.67290 0.01500
12.25898 -3.03235 0.05064
12.52877 4.34259 0.00724
13.96856 -3.01682 0.01500
4.81536 2.21195 0.30000
13.44543 -3.09735 0.47034
7.20545 6.35385 0.11500
5.93480 3.04265 0.31365
6.58793 5.99567 0.01500
14.50817 -0.74827 0.15859
5.63137 6.68765 0.46828
13.89981 -0.77500 0.12232
9.90167 -2.21803 0.01500
4.09633 -0.18943 0.28500
7.25641 -2.01433 0.03000
7.62712 -1.39814 0.03000
10.53736 5.44493 0.11500
6.82773 -2.36175 0.00000
6.75054 -0.63735 0.06610
11.62580 6.30914 0.11349
12.98811 -1.65285 0.08276
10.07502 6.39765 0.02923
4.08976 1.84265 0.71112
6.30597 0.61265 0.44845
14.48875 4.24265 0.34904
8.12500 5.86817 0.00000
8.08121 -2.97461 0.01500
14.79444 -1.38699 0.15536
12.47973 5.45765 0.01057
9.49404 6.65282 0.23696
5.37823 -1.99522 0.00000
14.75641 4.99584 0.01500
11.90904 5.20928 0.06193
6.69515 -1.80235 0.00587
6.80257 5.85334 0.01500
0.77904 2.90495 0.26509
3.77906 1.61742 0.42000
10.67632 -2.60930 0.15859
4.88048 1.31135 0.28500
2.53193 1.13806 0.12552
10.03036 5.13104 0.01500
3.94887 3.71372 0.30000
3.38243 0.52696 0.41492
6.04536 -2.58772 0.01500
4.30130 5.40702 0.15000
11.86404 -1.41035 1.16228
3.48596 5.22602 0.15000
13.59538 4.35150 0.03348
4.08760 -2.64576 0.00000
14.47392 -0.86036 0.00000
8.14634 4.62675 0.01500
15.18749 -1.09603 0.15559
14.30903 6.56040 0.08177
16.47852 5.42871 0.00000
6.96259 -2.27594 0.03000
5.33028 1.83125 0.61500
7.13989 5.44835 0.01500
4.49681 1.84265 0.71529
13.69125 6.59402 0.02939
10.69404 -1.13957 0.43279
3.52904 -0.72147 0.55884
12.54800 5.68009 0.00000
9.52887 4.24265 0.18925
9.27994 4.52305 0.11500
3.56093 1.91058 0.15000
6.93650 -2.65386 0.00000
2.17904 1.12489 0.11115
2.90898 2.32922 0.28500
7.67997 4.74068 0.01500
9.29081 -1.40089 0.01500
10.18447 4.25765 0.10951
6.86441 -0.58735 0.43183
6.82268 6.36225 0.21500
15.15939 5.19223 0.01992
13.33125 -2.53522 0.01500
2.18594 2.69227 0.00000
8.96616 -1.69063 0.01500
12.28190 -2.32600 0.12141
12.51506 6.25144 0.16265
4.95404 0.76924 0.28500
11.19838 6.59830 0.10136
13.91905 -1.30849 0.04441
6.55745 5.52265 0.18793
10.92502 -2.00546 0.15175
3.96183 -2.54049 0.00000
2.94365 1.27765 0.15771
12.92714 -3.03235 0.08868
13.79489 -0.60235 0.02350
12.49618 4.79264 0.01536
3.32136 0.14768 0.28500
11.09078 6.60865 0.06591
8.14625 -2.17763 0.03000
11.31561 6.68765 0.06814
7.44593 4.25765 0.07265
8.27904 -2.09989 0.49903
4.51272 2.66688 0.15000
1.06654 0.93806 0.08939
3.47904 5.31658 0.58212
12.04951 4.45039 0.04444
14.22157 -1.04650 0.01500
16.69404 -0.76567 0.02813
9.62013 -1.83235 0.31333
8.32904 4.99635 0.03503
4.02413 -2.91216 0.03000
11.67552 -2.70815 0.01500
10.24903 -0.86845 0.01500
14.59051 -1.38208 0.09172
1.03694 3.03515 0.21148
5.89437 2.23246 0.13500
5.10447 5.59409 0.11500
6.01646 -2.00191 0.01500
5.73526 -2.90605 0.01500
10.09366 4.63089 0.01500
9.52432 5.28203 0.00000
4.93103 1.82765 0.71986
3.47904 -2.71396 0.30346
2.53050 2.83515 0.19088
15.47156 4.75656 0.03150
0.87904 3.00457 0.05380
5.91729 5.26699 0.01500
6.78747 4.96490 0.01500
16.70904 4.63622 0.41575
2.43992 2.73515 0.21495
15.97292 4.25765 0.11822
12.89914 -1.57157 0.01500
16.18489 -1.72045 0.00000
8.68320 -0.57235 0.02572
0.23514 2.93515 0.08229
12.83572 6.05865 0.02766
5.59720 3.04265 0.14307
13.25096 4.25765 0.03007
5.29660 -1.78735 0.34807
7.20318 6.59532 0.01500
14.91961 -1.55196 0.10617
10.82020 5.52265 0.06598
4.24811 -0.61438 0.18000
6.35532 6.01260 0.01500
3.79816 4.22670 0.15000
12.55420 6.01987 0.11086
14.29404 -2.32606 0.39732
4.25291 -1.56881 0.16500
13.68703 -3.11235 0.20646
16.52507 4.25765 0.07329
10.93611 -2.84892 0.15536
8.66043 -1.55267 0.00000
8.27904 -2.98570 0.45485
4.21079 2.70428 0.27000
3.94135 -0.28656 0.30000
14.41987 4.25765 0.36298
10.19593 4.80380 0.01500
13.25871 -2.07541 0.06130
3.56166 3.88440 0.30000
9.99778 -1.34523 0.00000
10.66381 -0.58735 0.07187
2.72991 0.57015 0.73498
12.97232 6.44160 0.08576
5.93024 6.35909 0.00000
1.35203 1.74832 0.05000
5.88826 2.20229 0.15000
15.40823 -1.03870 0.01500
3.17106 1.78197 0.15000
2.87904 1.23636 0.24634
1.97904 2.49629 0.01443
6.96622 -1.33834 0.03000
10.92394 -2.43825 0.11335
7.43286 5.48657 0.11500
5.27903 0.62002 0.48225
14.32904 -0.81308 0.09558
0.77904 2.83437 0.16690
14.12112 -2.05405 0.01500
6.68185 -1.87327 0.03000
5.02975 5.70429 0.01500
12.79221 6.32745 0.00000
0.58990 2.14445 0.10000
5.02732 1.96080 0.27000
10.70951 5.52265 0.09787
5.87904 -2.43345 0.06595
3.45936 1.84264 0.16215
1.37904 2.86630 0.06209
8.95942 4.66894 0.01500
1.62318 3.03515 0.03679
5.02135 -3.00235 0.40288
12.92135 -2.86539 0.01609
10.67904 -1.75093 0.09531
5.32479 5.47265 0.54922
2.08540 3.03515 0.24248
12.19982 -0.60235 0.28668
12.01819 -2.92454 0.15536
11.37369 -2.75097 0.15536
12.13107 -2.65938 0.13419
6.49198 4.25765 0.06113
2.87904 0.67107 0.40536
9.74039 5.99559 0.15621
0.57904 2.86587 0.02884
15.01301 -1.34512 0.07391
8.14800 -2.16908 0.01500
12.41941 -3.03235 0.10307
10.91867 -2.47800 0.02418
13.61651 5.45765 0.04071
8.67685 -1.02584 0.01500
15.55682 -1.69830 0.00000
5.92904 -2.48776 0.08625
3.17904 0.24650 0.17027
11.94453 6.62265 0.10832
3.35775 0.90910 0.27000
12.02447 -2.44753 0.00000
14.06179 -2.75386 0.01500
9.31368 -0.59401 0.01500
14.03964 -2.98235 0.10281
3.46404 4.38942 0.49820
3.48885 2.97270 0.43500
7.84508 6.04591 0.11500
13.36327 4.51044 0.00877
0.87904 2.82719 0.15377
16.69404 -1.46325 0.15635
12.50497 6.56148 0.16237
10.61074 6.07176 0.01500
1.67904 1.70357 0.00928
5.49110 6.67265 0.55880
10.95549 5.97932 0.13632
3.97822 1.66643 0.28500
14.09807 -3.04735 0.11708
4.32166 3.13170 0.13500
14.31935 -0.63013 0.00000
12.59196 -1.30829 0.23676
9.59978 -0.97738 0.03000
3.83599 2.35945 0.40500
5.80189 2.81226 0.15000
5.87904 -1.75986 0.17237
5.85696 1.69265 0.15000
7.98695 -0.63735 0.07107
1.44262 1.63806 0.04865
9.53955 -1.83235 0.51613
16.10524 5.05648 0.05428
3.97904 1.74374 0.21450
14.38710 4.31278 0.01500
11.00403 6.05703 0.09157
14.23635 -3.04735 0.29377
10.67291 4.24265 0.30534
3.46404 -0.92234 0.27471
6.12575 5.89120 0.01500
7.09816 -1.20319 0.03000
15.45778 5.29357 0.01500
13.92339 6.35431 0.09363
6.71170 4.24265 0.40834
10.95932 -2.79433 0.15859
6.50701 6.65552 0.01500
3.59188 6.62265 0.01568
10.38870 -3.04735 0.27549
7.56936 6.49924 0.00000
10.16228 6.68765 0.03510
13.51200 6.53831 0.00000
13.74443 -2.07749 0.28738
14.97472 4.88034 0.15525
5.10363 -3.00235 0.33450
12.42663 -1.96814 0.28427
6.77854 6.67265 0.02652
14.10789 5.66422 0.05659
13.56981 6.68765 0.19561
11.91880 -1.24942 0.24125
11.26142 6.13765 0.08059
2.63417 2.83515 0.35365
4.81167 2.40878 0.30000
12.04802 6.07265 0.06877
5.79114 -3.01462 0.61500
3.22981 3.62780 0.28500
3.47904 -2.83159 0.04384
12.70513 -0.56735 0.50486
13.92546 -1.17197 0.09571
3.00796 0.82844 0.43500
11.86404 -0.71622 0.04001
6.29885 -3.01735 0.34258
11.85865 -2.18269 0.00000
3.77132 3.07833 0.30000
2.60214 0.93806 0.03214
4.61867 1.82765 0.27419
4.37904 3.15434 0.53758
4.69404 -1.17528 0.47341
13.26303 -2.33032 0.01500
5.42105 6.67265 0.09535
4.87158 -2.72074 0.13000
6.17772 1.49866 0.16500
3.48293 -1.80235 0.11464
6.42376 2.84512 0.15000
4.95193 2.64605 0.30000
4.30707 -2.25399 0.03000
1.93812 1.73145 0.00000
9.20613 -1.66648 0.00000
7.38072 4.77754 0.01500
6.48113 5.99658 0.21500
3.55327 5.30728 0.16500
6.09397 1.51041 0.16500
6.26701 -1.24797 0.00000
4.39602 -0.64901 0.18000
14.47189 4.24265 0.04332
16.70904 5.17202 0.02099
4.67904 4.90229 0.52677
4.17658 2.79705 0.31500
9.69250 5.13552 0.00000
2.61571 0.83806 0.25946
3.93304 4.62232 0.13500
8.59500 -0.91487 0.01500
16.72404 4.50699 0.47929
8.07181 -0.86478 0.00000
8.43665 -1.80235 0.35470
2.27904 2.37685 0.04805
6.64710 -2.45550 0.01500
7.53808 -1.93674 0.01500
9.09221 4.47167 0.01500
16.62091 -0.79226 0.00000
7.07276 4.46811 0.01500
4.62679 2.96598 0.13500
12.47961 4.73305 0.12018
7.20736 -3.00235 0.17097
4.07904 2.08874 0.27910
12.53006 4.72330 0.11995
12.30911 -0.73352 0.00000
4.67904 4.58100 0.03146
10.57239 -1.76462 0.01500
11.10747 6.30741 0.14429
14.31955 5.05867 0.11500
12.30548 4.89458 0.10892
0.91778 0.63806 0.18094
4.27904 3.10986 0.19322
3.42165 3.67633 0.28500
15.25378 5.39176 0.01822
10.03371 -1.22970 0.03000
4.33276 3.57466 0.28500
6.56138 4.53412 0.01500
8.17527 6.26514 0.11500
16.16184 -0.61735 0.52794
12.25858 -1.13247 0.04834
3.29280 2.73962 0.13500
5.79281 5.74358 0.00000
0.59415 0.73806 0.26371
12.00324 -1.09367 0.01500
11.84904 -1.69357 0.45309
0.23857 0.73862 0.10639
15.56669 -1.40511 0.01650
13.10904 6.05764 0.06289
3.54540 -2.96947 0.01500
6.48833 -1.73735 0.08876
13.07993 -2.83618 0.15536
11.84904 -0.82293 0.09743
4.26354 -1.46719 0.15000
9.23486 5.45765 0.50442
0.77904 2.68412 0.07343
6.42638 4.47660 0.01500
11.42182 -1.81735 0.53357
0.77904 1.26687 0.11694
6.59331 4.30765 0.04227
3.84556 2.63421 0.43500
5.93722 4.78523 0.01500
10.25284 5.61505 0.12816
4.45692 -2.21586 0.03000
3.44434 3.53871 0.13500
4.15205 5.74429 0.00000
14.85640 4.88165 0.00000
14.10491 5.52265 0.04517
5.87904 4.26663 0.48966
16.00598 4.43264 0.04946
5.98562 5.22134 0.11500
4.39404 3.98724 0.19794
14.30903 6.23260 0.34489
13.85768 -3.09735 0.04564
13.79628 6.08765 0.11473
2.70615 0.83806 0.00943
13.84078 -2.64251 0.15859
7.18744 -2.32871 0.01500
5.73513 0.61265 0.28172
9.49404 6.13007 0.15750
11.76660 -1.81735 0.13345
13.66409 5.17501 0.01677
2.47904 0.82620 0.27627
3.49763 3.53218 0.30000
9.47904 -2.59625 0.14710
4.95821 2.07190 0.28500
0.57904 2.40888 0.17048
3.17904 3.47414 0.53283
11.90904 4.81286 0.55921
10.48181 -1.47030 0.01500
5.65891 -1.80235 0.02094
3.53682 -1.80235 0.30356
6.27618 -2.00597 0.00000
6.37725 0.74897 0.13500
5.47077 1.84265 0.44896
13.76982 5.80930 0.01500
12.75849 -1.34511 0.05610
8.22904 6.06444 0.09487
8.27904 6.37923 0.14940
0.90517 3.05015 0.12623
5.92904 -0.71445 0.07156
1.46686 1.93448 0.00000
4.25610 0.04514 0.30000
6.64390 5.79412 0.00000
7.69189 -1.27772 0.13000
0.71832 2.33515 0.01604
6.60497 -2.52468 0.03380
11.80989 -1.91592 0.00000
10.13159 -3.03458 0.61500
3.33331 2.30330 0.15000
3.36317 3.77985 0.28500
6.38900 3.03822 0.16500
5.12742 1.92927 0.27000
4.58470 2.15773 0.15000
11.90904 6.11743 0.04572
15.50290 5.47265 0.54264
13.24420 -2.29716 0.14892
9.92395 6.05765 0.09282
11.62523 6.68765 0.04953
16.58803 -0.60235 0.42774
5.39410 5.61221 0.11500
4.39404 3.92313 0.61754
16.70904 5.45194 0.44167
7.82855 6.04595 0.11500
9.39550 -1.73735 0.03579
13.23670 -1.21655 0.14868
9.83644 -0.58735 0.29452
13.57596 6.62265 0.09618
9.50904 5.90157 0.03699
16.34679 4.82245 0.07955
0.62967 2.43515 0.00593
10.79022 -1.81735 0.06135
9.90190 -2.11997 0.00000
12.05911 -0.73680 0.15633
11.92904 -1.81726 0.43462
13.50534 6.53689 0.00000
12.69758 6.39433 0.00000
3.47904 6.34225 0.15330
13.80203 -2.66924 0.28750
10.62118 6.07050 0.00000
5.95828 2.62816 0.13500
5.61229 1.64786 0.15000
11.57188 5.59007 0.08500
10.34169 6.05865 0.02839
6.69211 -1.37931 0.01500
12.79853 5.67401 0.00000
3.73569 -2.89156 0.00000
7.21780 -2.20724 0.00000
4.69404 -0.88787 0.50152
8.82148 4.71915 0.00000
13.13504 6.56932 0.03646
9.74271 -2.87436 0.00000
7.89216 -2.59364 0.03000
7.84215 -2.52496 0.03000
14.77344 5.45765 0.03369
12.61440 -1.66070 0.02419
4.36061 2.81086 0.27000
2.56207 0.83806 0.22446
10.85393 -1.86787 0.01500
13.98974 6.68765 0.24586
5.85376 -2.49295 0.03000
13.12283 6.67265 0.51192
10.27605 5.16727 0.01500
6.99928 -2.27307 0.01500
6.52382 6.24558 0.00000
12.63421 -1.01174 0.10714
11.02928 6.14466 0.10781
4.15541 0.34936 0.27000
2.37904 2.91332 0.14838
8.88016 4.65441 0.11500
8.76721 4.25765 0.13540
5.55889 -2.81917 0.03000
14.05820 4.25765 0.09461
3.52904 1.25651 0.21457
3.66933 1.97077 0.42000
7.62904 5.95611 0.19692
6.06468 4.32265 0.08240
6.66207 5.28397 0.01500
4.37904 4.17001 0.69953
14.90778 4.25765 0.45318
9.58794 -2.23708 0.00000
11.32005 6.67279 0.01500
11.36133 -3.03235 0.09802
8.95879 4.72110 0.01500
13.27453 6.67265 0.15373
6.42064 1.84265 0.16064
0.15412 2.25473 0.08376
4.02572 0.50730 0.30000
6.47903 6.31135 0.18438
13.89601 -3.09735 0.06512
9.50904 5.98570 0.08074
10.70124 5.47265 0.01487
12.22853 -2.23355 0.00000
5.35910 1.77202 0.20559
10.50198 -0.95761 0.00000
13.81250 -2.83504 0.28750
6.74510 -2.52339 0.03765
0.55411 2.48049 0.27000
9.64170 -1.20426 0.03000
6.44567 -3.00235 0.06966
4.54604 6.67265 0.12908
13.90088 -1.21044 0.00000
16.48108 -0.60235 0.10453
3.45918 -0.38454 0.15000
13.44492 6.10404 0.00000
15.73271 -0.64330 0.01500
5.19593 0.61265 0.20145
2.77904 2.68095 0.25193
1.97170 2.38391 0.10000
13.20122 -0.67195 0.06015
2.78804 0.62015 0.61212
6.66110 -1.37795 0.03000
8.85404 5.21828 0.14679
3.64351 3.45199 0.15000
14.21993 -1.42064 0.00000
4.68762 5.78536 0.00000
3.59544 -1.90255 0.01500
12.31657 -0.55235 1.12697
10.16596 -0.75224 0.01500
7.23363 4.25765 0.41542
9.93270 -1.85180 0.11500
0.15296 2.82046 0.06792
3.04754 2.54144 0.42000
0.47904 0.91607 0.30929
3.91448 1.52653 0.43500
9.71463 6.67265 0.49937
3.64752 2.45142 0.42000
8.29404 -2.59241 0.34841
9.94703 -1.32133 0.00000
6.00724 6.15614 0.00000
2.88183 1.98330 0.28500
5.21339 6.50370 0.01500
5.27903 1.04918 0.28821
3.84340 -0.49634 0.28500
3.75981 0.64367 0.28500
10.67457 -0.57235 0.06042
5.25784 -2.50361 0.01500
15.43589 -1.76735 0.05246
3.83193 0.98017 0.40500
9.60920 -1.54750 0.01500
12.01977 6.14390 0.03237
13.90666 -2.65938 0.01564
8.27904 -2.79727 0.41925
1.87198 2.03515 0.04081
7.89730 -2.69452 0.00000
12.56884 -1.92146 0.01500
9.47904 -2.53750 0.32654
0.57904 2.43709 0.22218
11.94508 5.45043 0.31500
13.82338 5.80841 0.11730
16.57943 -0.61735 0.11303
11.74903 -2.27743 0.00000
10.05233 -1.02320 0.01500
14.32547 5.47265 0.58024
3.49126 0.16480 0.13500
3.92275 6.67265 0.59863
13.62370 -3.09735 0.15657
12.36841 4.37549 0.03990
4.32415 6.24482 0.01500
0.52124 0.69901 0.86352
5.31127 -3.00235 0.11041
13.10199 5.15959 0.01500
10.68779 -3.04735 0.34922
0.87169 2.88819 0.36000
6.96533 4.47233 0.11500
11.77643 5.77042 0.01978
13.18845 -1.27490 0.28427
8.12066 -2.78387 0.03000
3.53272 2.42232 0.28500
11.86585 -2.16202 0.00000
3.16404 3.89194 0.42429
5.45655 2.67439 0.15000
3.43637 3.04265 0.41906
8.22904 -2.53622 0.01813
12.74758 -0.67196 0.24974
3.74717 1.16920 0.42000
4.21447 2.66228 0.28500
13.06606 6.29168 0.07230
16.12048 -1.28793 0.01500
2.72562 0.93806 0.04965
7.49237 6.04790 0.01500
5.28403 -2.99657 0.11500
14.47976 -0.75952 0.15859
12.27567 5.40785 0.01500
14.57177 4.25765 0.32232
3.13481 0.95647 0.28500
13.10363 6.46235 0.00000
13.42922 -1.67274 0.21634
5.88669 5.19143 0.00000
13.26813 4.85765 0.04410
11.84904 -0.58534 0.36248
4.50693 -3.00235 0.45312
9.49404 6.65239 0.38887
2.13383 2.63652 0.00000
8.91130 5.47265 0.09877
13.08148 5.68737 0.00000
14.61916 4.94253 0.09383
5.55044 5.45765 0.12711
13.26569 5.75913 0.00000
14.13676 -2.65939 0.28251
12.07412 -1.92779 0.00000
13.94951 5.99469 0.00000
1.07904 0.88535 0.05659
10.94436 -2.50437 0.15536
4.12904 5.43699 0.02305
4.22416 3.66420 0.28500
0.99816 3.03515 0.04940
2.58108 0.64092 0.00000
9.01376 4.95903 0.11500
9.57904 5.87207 0.09667
3.71757 1.49330 0.42000
12.05509 -0.61735 0.08413
8.32434 4.42921 0.00000
1.74426 0.62015 0.29667
7.01926 -2.79754 0.12803
10.65719 -2.17679 0.00000
13.01677 4.87265 0.14696
4.32640 2.17578 0.30000
5.92904 4.42923 0.02555
4.86781 5.52265 0.04989
7.48293 -1.45984 0.01500
5.54646 2.30729 0.15000
3.27888 -0.53290 0.27000
8.60406 5.40232 0.00000
1.97904 1.60211 0.09917
12.77324 -0.55235 0.07732
9.79580 -1.24722 0.00000
8.89265 4.26618 0.21500
13.63006 4.56873 0.08575
13.63005 5.36799 0.02431
4.77099 0.61265 0.30359
13.04322 5.97025 0.04713
6.08445 2.35042 0.16500
10.77125 -1.81735 0.36262
0.67904 2.83774 0.09084
11.16031 5.45765 0.34484
13.93752 -1.22324 0.15536
3.73239 -1.98762 0.01500
13.74405 4.92641 0.08994
3.46459 1.87086 0.28500
3.36549 0.13482 0.30000
10.41983 6.62265 0.02850
3.49015 3.09223 0.42727
12.74746 4.76674 0.09531
10.17713 6.68765 0.32889
8.68506 -1.15853 0.01500
6.20486 -1.98315 0.10453
10.59171 -2.19467 0.07195
3.47904 -0.85790 0.16172
12.08896 5.91008 0.01500
14.91504 4.54436 0.02326
1.07904 1.08420 0.16956
3.82239 -2.00068 0.12906
2.72955 0.63806 0.37628
0.15247 2.76766 0.08332
5.30734 1.78135 0.19500
8.27904 -0.98950 0.08684
1.47903 0.81885 0.02995
2.47904 2.97997 0.11474
3.63778 5.83249 0.01500
2.00536 2.39970 0.10000
11.18753 6.17662 0.16574
13.80213 -1.37124 0.00000
6.13756 -1.91585 0.11318
5.06579 1.20600 0.28500
11.50211 -2.27909 0.15536
0.87904 2.29777 0.06601
4.27904 -0.55901 0.24680
12.19802 -0.56735 0.08310
13.01227 6.68765 0.07226
2.87904 2.60947 0.05671
12.96294 -2.58398 0.28750
9.63377 4.68928 0.11500
0.77904 2.49289 0.04812
12.11069 -2.98236 0.01500
4.25493 5.97571 0.01500
13.16623 6.05764 0.15537
6.33676 -3.00235 0.05911
7.46068 4.51256 0.00000
11.95796 4.53606 0.01500
10.71566 -2.72710 0.01500
4.38814 0.31927 0.15000
14.64434 -1.81735 0.23407
3.46404 4.86022 0.51041
5.40657 0.78192 0.13500
2.87904 2.24211 0.07855
4.23843 -0.35557 0.30000
0.47252 2.76044 0.15355
5.02302 2.47676 0.27000
12.90274 -2.99276 0.08985
9.51665 -0.57235 0.38109
10.87771 -2.64382 0.15536
12.79948 -1.80673 0.01500
10.66681 -3.04735 0.23635
12.43335 -1.40935 0.28427
15.23739 5.43477 0.00000
3.50858 -2.28847 0.01500
0.87765 1.43806 0.03771
10.38222 -1.47032 0.01500
10.69404 -1.69082 0.27702
6.47904 2.90070 0.14690
12.04256 5.30566 0.02295
14.53119 -1.41081 0.00000
0.86441 1.23806 0.14398
0.44390 2.23145 0.14588
9.15568 4.24265 0.44276
8.63386 4.62086 0.11500
4.52712 -2.62203 0.01500
11.28581 5.72434 0.01500
14.26149 -0.83800 0.01500
14.30904 4.25203 0.18675
14.62140 -1.83235 0.35748
3.58742 -1.85629 0.00000
2.73158 0.63515 0.52330
4.12598 6.05257 0.11500
13.07356 5.67936 0.02347
11.75473 -2.98999 0.11500
5.91877 -2.12242 0.03000
12.39874 4.59504 0.09873
10.67904 4.44135 0.07371
6.76398 -3.01735 0.34577
6.17841 2.06652 0.16500
5.37903 3.01312 0.23618
3.16404 3.91724 0.41977
7.74161 6.68765 0.15035
11.23922 -2.37433 0.14858
14.27439 -1.20938 0.15536
6.85849 -1.43700 0.00000
7.10081 -1.38348 0.03000
10.04258 -1.21484 0.01500
14.30903 6.05615 0.07767
3.98457 1.41563 0.40500
11.87904 -0.73467 0.20799
14.38452 4.94819 0.01543
0.57904 2.40062 0.02122
12.95949 -2.67861 0.15275
10.45241 6.07265 0.04675
7.44222 5.18548 0.13383
6.63006 5.58898 0.01500
5.95699 2.23795 0.13500
13.89981 -1.71895 0.04961
10.51852 5.42265 0.06566
3.25122 0.74904 0.13500
12.78808 -2.65379 0.11309
1.37904 2.97512 0.04900
7.06023 -2.51938 0.03000
9.06688 -1.62491 0.01500
13.08273 5.40189 0.01177
10.56503 6.34108 0.06842
16.02501 -1.58365 0.00000
12.11243 -3.04735 0.35185
11.36140 -3.03235 0.09061
3.47904 -2.10319 0.24934
4.14819 -3.00235 0.46457
8.58599 4.75382 0.01500
13.72694 6.66762 0.11500
10.16406 6.35003 0.08701
3.81480 -0.13128 0.30000
1.24147 3.02124 0.18000
5.25587 6.50933 0.11500
7.21568 6.17394 0.11879
2.47904 2.38114 0.15148
3.90840 1.34132 0.40500
3.59783 -2.63931 0.00000
14.25903 6.11747 0.08958
3.78222 -1.24095 0.15000
7.99638 -1.96787 0.03000
7.38933 -1.37792 0.00000
5.34721 1.72714 0.29113
2.89846 1.04829 0.42000
4.26195 -2.33533 0.01500
4.04441 2.59612 0.42000
6.23932 -2.02302 0.00000
15.76608 4.25765 0.03650
4.41813 1.45820 0.13500
2.17141 2.83515 0.17226
3.46404 6.25264 0.51292
4.31404 6.54853 0.13429
11.02246 -2.13176 0.00000
14.58900 4.43317 0.04760
13.65664 6.09574 0.02276
3.98487 4.10897 0.15000
12.85735 -2.39011 0.15859
4.69404 -0.82465 0.45842
5.92114 1.84265 0.35242
3.47904 4.59886 0.56468
3.83982 2.10491 0.43500
3.60384 4.73475 0.15000
5.40949 6.44248 0.01500
3.53000 6.19469 0.00000
4.60156 2.59432 0.28500
16.21222 -1.81437 0.11500
6.71177 -3.00235 0.36432
3.13326 1.61662 0.42000
5.94469 2.70176 0.16500
9.41017 -1.14770 0.01500
0.67904 1.10200 0.13166
14.58580 -1.10065 0.05732
16.60219 -0.66735 0.08357
12.47741 6.67272 0.61500
4.41167 -1.71757 0.13500
3.43674 1.38883 0.43500
8.22904 5.82849 0.05056
14.50205 -1.71692 0.01500
4.33539 2.43470 0.27000
15.90768 5.28608 0.14099
4.21604 3.06580 0.27000
14.32403 6.13430 0.20671
9.80011 6.61917 0.07320
8.66013 4.39009 0.00000
5.72862 6.67265 0.39537
11.51827 -1.81735 0.33896
1.14374 0.98620 0.18000
7.76331 -3.01735 0.34659
12.85946 -1.41915 0.15536
14.17832 -3.04735 0.13260
11.87904 -1.79204 0.02845
6.68253 -2.84931 0.03000
12.90384 -2.86105 0.03627
11.72175 6.08765 0.11137
11.77208 5.86591 0.01500
13.82875 -2.32601 0.05126
12.05053 4.78757 0.15032
6.26784 -1.39854 0.08628
4.86213 0.72804 0.27000
6.12308 2.24376 0.15000
12.19204 -2.26276 0.15536
3.71051 2.12874 0.42000
8.57012 -1.73735 0.06969
10.65590 -2.67861 0.10206
3.16404 3.40629 0.66769
-0.06699 2.22692 0.02452
7.98526 4.40289 0.01500
13.86467 -2.65938 0.07726
4.26869 -0.33900 0.28500
7.08593 4.72081 0.00000
14.92131 -1.22041 0.01500
12.58486 -0.61735 0.12550
9.54605 4.92781 0.11500
2.18318 1.33806 0.03545
4.88907 0.97597 0.27000
13.15962 5.51966 0.01500
15.18478 -0.60235 0.15551
13.64506 4.74970 0.03578
4.18844 -2.37629 0.03000
14.23872 -2.98729 0.61500
5.24076 5.47265 0.40912
2.77904 1.51350 0.02195
7.55365 4.85513 0.01500
8.22904 4.69951 0.02649
15.98733 -0.60235 0.50089
5.51833 3.05765 0.06188
3.78386 -0.07518 0.28500
12.13247 6.44164 0.01500
1.67904 2.06363 0.02565
8.10847 -0.76657 0.01500
10.47850 5.56076 0.00000
3.17904 0.42232 0.47942
11.01154 5.70259 0.01500
8.19005 5.88547 0.00000
8.40866 -0.58735 0.49363
3.24939 2.25413 0.43500
0.87904 2.79536 0.09632
11.84933 -2.31960 0.05083
7.98883 -1.78735 0.02531
9.83713 -1.78735 0.03770
4.39404 0.29686 0.33465
15.60976 4.24265 0.59735
14.34238 -0.60235 0.29428
12.49108 -1.33871 0.08428
3.42189 0.76642 0.15000
9.57904 5.97778 0.10062
13.59090 -2.51998 0.05293
8.26859 -0.72763 0.01500
5.87166 2.12577 0.13500
3.47904 -0.82403 0.04700
13.48677 -2.69424 0.01500
4.10195 0.62765 0.66046
3.90348 4.29784 0.15000
3.79256 6.58755 0.01500
7.43958 -1.82738 0.01500
3.17904 3.35761 0.48511
7.54480 6.03760 0.01500
0.96518 2.85599 0.27000
9.47904 -1.89564 0.47226
13.17381 -0.61735 0.36558
5.30402 2.78931 0.18000
3.96310 2.60544 0.43500
11.07480 6.62533 0.01500
11.94068 -1.06212 0.00000
3.17904 3.43242 0.35946
4.50862 1.84265 0.71634
16.49431 -1.34236 0.00000
10.69404 -0.90532 0.20146
6.88321 5.43984 0.01500
7.55388 -1.04840 0.00000
5.09023 6.67265 0.06559
3.69148 -0.97849 0.15000
5.02078 5.45765 0.39881
13.18301 6.21374 0.00000
11.53943 -2.40121 0.00000
8.57997 -1.80235 0.21434
13.60676 4.25765 0.10963
4.06011 3.83392 0.28500
1.37904 1.85257 0.00039
16.07931 -1.35645 0.00000
6.52904 5.72544 0.19751
12.52415 -2.22818 0.00000
7.88683 -2.70205 0.00000
7.15087 -0.62027 0.01500
9.52934 -1.28976 0.01500
12.04028 -0.60235 0.04401
3.43517 0.72765 0.04367
3.23800 0.95611 0.15000
3.57067 5.27530 0.16500
12.90610 -1.89183 0.11617
15.30247 -1.09357 0.01500
0.67904 1.37654 0.07158
13.68888 6.09857 0.11039
2.69938 2.43515 0.00117
11.24634 -2.29395 0.10408
3.62050 -1.42287 0.15000
15.04530 5.23747 0.00000
13.12138 5.10925 0.01727
2.27111 2.79694 0.18000
4.89578 6.67265 0.47117
15.95496 5.43593 0.11500
0.57904 2.83909 0.30705
1.21797 1.75169 0.00000
4.27036 4.02492 0.13500
7.54841 -0.80003 0.03000
13.24588 -1.66469 0.12280
4.67313 6.62265 0.08874
13.80961 -0.96771 0.01500
10.67904 4.94808 0.02829
9.79824 4.24265 0.35948
12.91892 -2.41026 0.09163
14.22966 -0.67638 0.15859
12.07314 -0.60235 0.29869
5.26939 3.05765 0.15118
13.92546 -2.79329 0.14987
4.70404 6.30561 0.13967
2.77904 2.78335 0.10560
3.35953 3.81329 0.15000
14.98949 4.97716 0.00000
5.35270 0.86254 0.16500
7.31985 4.25765 0.19827
1.24947 1.13806 0.00663
4.33228 2.33646 0.28500
12.38236 5.17519 0.00000
8.21270 5.33856 0.01500
10.87742 5.47265 0.55703
5.86404 -1.74658 0.51920
13.57006 -2.96070 0.21232
14.83174 5.36268 0.13526
2.14549 1.21529 0.18000
4.65354 -3.01735 0.08984
12.35861 4.94797 0.10763
8.05827 -0.57235 0.13194
6.05757 6.68765 0.09478
2.27904 2.24695 0.17380
3.47904 -2.32123 0.11363
6.48787 5.06881 0.21500
6.39274 -1.81319 0.00000
13.34382 -3.01879 0.00000
5.07958 1.73906 0.27000
6.31344 4.24265 0.60544
13.56644 -1.74618 0.28011
6.64671 4.25765 0.26268
9.85905 5.41823 0.11500
4.90262 -3.00959 0.61500
-0.00536 2.54572 0.02550
9.20279 -1.16477 0.01500
14.30904 -2.67932 0.93229
2.74505 1.61019 0.00000
10.69404 4.67854 0.10226
12.23294 -1.43636 0.27257
1.92059 3.03515 0.18615
8.19120 -3.00235 0.10972
5.60660 1.03759 0.16500
3.43525 1.14841 0.42000
12.39535 -3.03235 0.49898
3.16404 0.19683 0.53219
13.42324 6.01586 0.15388
1.17904 1.24623 0.06602
6.61578 5.87372 0.01500
14.05144 5.91227 0.05619
9.65691 4.30765 0.10113
8.95880 4.24265 0.03253
12.58001 -1.02755 0.29071
16.66491 4.25765 0.49372
2.57904 1.84153 0.04863
13.07307 -2.32533 0.18298
15.23367 -1.28869 0.03227
6.04413 -1.55197 0.01500
1.04168 2.63515 0.21920
14.30903 5.84660 0.49615
3.99419 -3.00235 0.30079
15.70465 -0.75935 0.01500
3.47842 0.57118 0.28500
1.22017 2.70965 0.18000
2.27904 2.80809 0.04840
0.95888 3.03515 0.40187
6.30330 5.52265 0.05150
7.50564 -1.76434 0.03000
6.46615 4.66497 0.01500
6.94836 5.91723 0.00000
3.67044 1.73267 0.40500
13.27201 -1.84926 0.01500
13.24779 -1.99904 0.23156
13.97881 5.16657 0.07079
0.95098 1.23806 0.23399
12.57272 -2.48709 0.14850
13.07156 4.25765 0.05927
6.01604 5.56537 0.11500
16.10053 4.85015 0.09309
11.97906 -3.04735 0.51059
13.56225 5.63240 0.06666
8.41041 4.24265 0.19538
3.47904 -1.91440 0.34615
3.79188 3.60765 0.16225
4.06735 3.36754 0.27000
15.96907 5.40015 0.13011
15.83074 5.32446 0.05308
12.82312 -1.00011 0.24580
11.38443 6.52663 0.05522
10.67904 -0.72568 0.08626
12.13586 -1.93226 0.00000
10.59711 -0.62163 0.01500
13.52566 -1.33550 0.29257
1.47903 2.98792 0.07251
12.09268 -1.60727 0.01500
2.59442 2.77155 0.36000
6.08992 6.12406 0.01500
6.30542 0.61265 0.45970
0.37915 2.72637 0.14406
13.00097 -0.55235 0.99015
9.47904 -2.89045 0.44076
9.43492 5.07540 0.01500
9.96638 5.96368 0.13213
7.90888 -1.14622 0.00000
10.61822 5.45765 0.06981
14.07369 5.03910 0.10495
5.09753 2.80930 0.30000
8.90404 5.07021 0.16556
2.69906 1.23806 0.16452
8.75100 4.24265 0.23669
3.46404 -2.95206 0.26581
3.51938 0.08821 0.27000
12.58555 -1.67775 0.07445
14.97650 -0.60235 0.34546
10.20396 4.24265 0.51170
3.46404 -2.84783 0.25235
14.28880 -1.66272 0.01500
10.26961 -0.58735 0.03172
0.77904 0.85015 0.29516
3.88006 4.75882 0.16500
3.17904 3.40243 0.21558
2.67904 0.81750 0.18919
2.96342 2.13104 0.27000
5.99697 -1.09145 0.01500
14.68319 4.53017 0.01500
7.48862 4.94094 0.00000
9.76360 -2.92201 0.00000
8.43028 5.17977 0.01500
11.55202 5.64307 0.07479
3.12222 1.95728 0.27000
2.07904 1.73574 0.03673
6.57066 -1.50095 0.00000
7.29061 6.07743 0.01500
4.71291 1.52668 0.30000
14.06606 6.23742 0.10828
4.82459 1.84265 0.19894
7.65981 -2.12826 0.03000
14.30904 -2.38969 0.89499
9.21055 -0.85584 0.04826
12.17541 -2.20682 0.15859
12.32067 -1.31946 0.14859
0.69392 1.23806 0.12984
4.37904 -0.25336 0.60407
3.94373 3.34160 0.13500
14.98430 -0.62742 0.01500
10.10517 6.05765 0.13226
12.34046 -1.65498 0.11742
12.54799 5.18602 0.08111
6.11989 -2.81014 0.03000
12.90610 -2.26041 0.15115
3.86240 6.66953 0.00000
12.77733 5.21456 0.07346
4.27086 1.77765 0.49768
1.07117 2.63515 0.21880
3.27040 3.01772 0.43500
15.05482 -1.35467 0.15536
13.25871 -1.23603 0.13718
6.81908 4.56233 0.16295
9.76886 5.74518 0.00000
5.80165 1.70752 0.15000
12.49080 -3.03235 0.11981
4.66574 1.06534 0.27000
14.30904 -2.82255 0.98236
9.47904 -2.41063 0.43677
5.87904 5.60289 0.01830
3.67146 2.40244 0.40500
1.87904 1.11276 0.03230
5.87904 4.43767 0.18390
1.17904 2.82355 0.09726
11.54054 -2.54202 0.15548
4.52529 6.26467 0.01500
5.65933 -1.80422 0.01500
12.62257 -0.56735 1.06013
14.78567 5.45765 0.22984
8.70597 4.43688 0.00000
14.73319 -1.63086 0.01500
11.84904 -1.19183 0.38499
3.49103 1.78599 0.13500
3.20754 0.75079 0.28500
12.56631 -2.71762 0.12888
11.87904 -0.83029 0.28742
6.92925 5.81687 0.01500
5.20449 -3.01735 0.44909
2.27904 1.36485 0.16543
5.35892 1.22167 0.16500
4.15225 6.36177 0.00000
15.73808 -1.02732 0.01500
4.63340 5.13784 0.15000
10.84082 5.52265 0.09904
14.57905 4.25477 0.01500
5.00149 1.25253 0.15000
11.57260 -2.63910 0.15793
14.53527 -1.30546 0.01500
13.00918 -1.67208 0.01683
14.88263 -1.33870 0.02791
6.04512 -1.78735 0.05706
12.95853 4.74710 0.01500
13.76598 -1.84518 0.01500
12.37154 6.68765 0.39116
9.98704 6.09681 0.07152
11.15420 -2.94771 0.01500
16.12687 -1.21617 0.01500
9.14608 4.97045 0.01500
2.67904 2.94153 0.22417
9.91148 6.67265 0.31669
13.50223 -1.33871 0.25974
13.80232 4.25765 0.47239
4.40446 4.26946 0.13500
7.50715 -2.57713 0.01500
3.54848 1.14864 0.13500
13.39641 -2.09971 0.15536
11.34320 6.14202 0.00000
15.36056 4.30765 0.05569
4.82723 -2.83425 0.01500
12.35535 -2.35468 0.00000
12.58547 5.05437 0.11639
0.48886 3.03515 0.21304
13.84379 4.24265 0.19083
7.09936 4.24265 0.03345
7.82128 -2.25694 0.13000
13.09404 -3.10663 0.04664
1.00803 2.23515 0.01535
12.93713 -1.34512 0.24735
3.64989 6.04204 0.01500
15.71204 4.59085 0.01500
12.31982 4.80841 0.00000
2.57904 2.65645 0.00487
15.51953 5.45765 0.48926
5.15364 -2.93891 0.01500
4.56273 0.66482 0.28500
15.57310 -0.67797 0.09774
8.71168 -1.00988 0.00000
4.77935 6.64069 0.11500
2.85767 0.73806 0.39233
11.90597 -2.91527 0.08347
5.31141 1.42352 0.16500
8.34671 5.46504 0.01500
13.74000 -1.00232 0.16180
3.30920 1.74146 0.42000
5.54789 -1.80235 0.48014
3.79564 4.34488 0.18000
3.47904 6.19703 0.05489
12.39660 -3.03235 0.34225
10.69817 -2.53827 0.15859
10.39412 -0.58735 0.37430
5.63453 0.99741 0.15000
2.96210 2.51165 0.13500
4.81279 3.05765 0.58541
14.32025 -1.34515 0.01500
4.31157 -0.70440 0.15000
3.57389 1.06934 0.28500
8.05181 -2.73245 0.03000
13.63217 -1.23262 0.15536
3.42904 1.93657 0.04006
5.23858 0.61265 0.19210
9.62211 -1.91217 0.01500
10.61105 6.67265 0.07855
5.66937 2.90911 0.15000
10.60793 -2.89637 0.15536
12.31456 5.54281 0.04266
14.58029 -0.79716 0.16500
12.24181 -1.09107 0.01500
12.80152 4.83175 0.09636
4.10169 1.64016 0.28500
7.55713 6.67265 0.42727
4.69404 4.51261 0.47017
14.92608 -0.82563 0.15536
6.57762 -1.04041 0.03000
5.37808 2.15219 0.15000
12.62022 4.75274 0.01500
3.89562 -1.50223 0.15000
3.77742 4.99567 0.16500
10.01912 -0.57235 0.13305
10.50885 -0.83251 0.00000
7.91273 -0.58735 0.42657
13.48165 -0.61735 0.32748
3.71359 3.78910 0.15000
4.69224 -1.78735 0.22850
15.20552 4.37930 0.03549
2.49824 1.13806 0.15326
4.15677 3.65009 0.15000
13.04898 6.67265 0.43199
10.07012 -1.21694 0.00000
8.22012 4.30765 0.08167
0.48166 0.73806 0.24100
3.70451 4.86290 0.16500
6.40898 1.82765 0.11786
6.39509 5.79424 0.01500
4.17793 0.84274 0.31500
5.59424 -2.90883 0.03000
13.02281 -1.00142 0.03251
12.06423 4.84265 0.12068
7.06450 5.35423 0.01500
14.13626 -1.35991 0.01500
1.06692 0.73806 0.25402
6.28820 2.86307 0.15000
8.22904 5.35818 0.03642
5.07887 6.68765 0.01620
12.44402 4.92636 0.07875
16.30878 4.86515 0.03552
10.80761 6.08965 0.04841
4.39404 4.12026 0.43955
2.82195 2.95765 0.72220
0.41134 0.83791 0.13715
7.83557 -1.48891 0.12319
12.62247 -2.32601 0.28608
10.91750 5.47265 0.07862
2.67904 2.83066 0.22056
12.86512 -1.01174 0.09563
7.57023 -1.17552 0.01500
9.20158 5.40765 0.13476
6.14454 4.77431 0.01500
14.95326 4.35035 0.01500
4.92990 1.21659 0.28500
3.82436 6.09915 0.01500
1.81095 1.49239 0.00000
3.17904 0.03154 0.74713
16.57703 4.78772 0.00000
4.93790 2.71343 0.15000
5.27903 2.40544 0.26220
12.25217 -2.30083 0.02577
0.54402 2.93515 0.09665
4.66699 2.49265 0.23399
5.75185 1.82765 0.13523
3.74913 2.85824 0.13500
7.80160 -3.00235 0.08345
11.20173 6.06977 0.01500
4.49227 4.33887 0.29194
0.61685 1.57726 0.10000
1.27904 2.46991 0.05097
4.42472 1.55969 0.13500
14.81871 5.08271 0.14730
2.71831 2.43515 0.07576
11.07542 6.45010 0.13570
8.33855 5.47839 0.61500
8.21254 -2.36125 0.00000
7.51409 6.67265 0.09161
6.26162 -0.90233 0.01500
11.94425 -1.44641 0.28427
4.04228 1.33958 0.42000
10.40914 5.56975 0.08628
13.48776 5.12195 0.11544
6.53366 -2.86887 0.03000
11.63053 6.63377 0.00000
5.97766 2.39203 0.16500
14.18505 4.25765 0.14884
7.60431 4.36378 0.11500
12.76370 -1.95401 0.28750
4.85977 -1.99080 0.00000
14.27518 6.41598 0.01500
-0.09041 2.48562 0.01824
4.52594 6.11314 0.01500
6.11869 6.67495 0.61500
3.32911 0.59493 0.34229
15.60690 -0.61735 0.53440
1.07904 0.75399 0.14245
9.36408 4.71119 0.01500
4.16695 3.14885 0.33000
3.39391 -0.54001 0.13500
5.35080 6.54259 0.01500
16.20713 4.82029 0.06521
5.40973 -2.38578 0.01500
8.05949 -0.58735 0.37663
6.90438 5.76168 0.01500
16.70904 4.96474 0.10441
13.51308 -2.98959 0.24580
7.40863 -1.91573 0.00000
16.12806 4.81682 0.08639
2.91764 3.01333 0.63908
4.16786 1.14887 0.31500
3.82904 -0.57984 0.18864
5.60973 3.05765 0.29547
2.67904 2.45782 0.26165
5.02989 0.61369 0.75000
14.21075 -2.99476 0.01720
4.27312 0.62765 0.35119
5.35345 6.67265 0.38037
0.62656 0.62015 0.17059
13.59208 -0.69180 0.01563
13.13246 -1.18304 0.00000
4.95010 1.91309 0.15000
7.69447 4.31802 0.00000
3.47904 6.42633 0.09589
14.11774 4.25765 0.11115
11.90904 6.43826 0.03322
14.58580 -0.73825 0.11206
2.47904 1.18646 0.20510
4.33775 0.61265 0.30606
15.15465 4.51735 0.10088
14.09172 6.66146 0.01500
3.46404 6.13326 0.40064
12.67063 6.52878 0.06240
3.23285 2.96579 0.27000
2.72904 0.61813 0.19333
13.27011 -1.31463 0.00000
5.87904 4.90097 0.04324
4.57963 2.81648 0.30000
11.82904 -2.69562 0.11279
7.00269 -3.01735 0.18884
4.69261 5.51113 0.11500
8.00644 5.24502 0.11500
9.46404 -1.95080 0.45191
5.47353 6.67265 0.05228
6.91762 -1.99735 0.03000
7.21107 6.01345 0.01500
5.34870 -2.99765 0.01500
0.97904 2.21388 0.00575
5.73596 2.46279 0.15000
14.53876 4.86038 0.05676
4.38031 -2.48756 0.03000
14.29404 -2.61351 0.11881
10.09468 5.85127 0.10201
12.59268 6.62169 0.03370
12.70876 -1.32401 0.21650
5.86404 -0.86782 0.08197
12.45774 5.62390 0.06438
4.17243 0.62765 0.19833
2.88010 1.82765 0.34647
10.27907 5.40927 0.01500
0.87904 2.94467 0.12536
6.80443 -2.95235 0.09921
7.10460 6.62265 0.09288
11.16212 -2.04746 0.00000
12.55851 -1.88235 0.02981
8.07317 -2.35890 0.01500
12.30795 5.39775 0.09405
13.97196 6.60381 0.04230
13.99675 -3.09735 0.64643
16.13222 4.78514 0.00000
4.69404 -1.62454 0.31571
8.36526 4.24265 0.37340
14.55291 5.45765 0.57414
14.30904 -2.15953 0.47698
1.01028 3.03515 0.19172
9.47904 -1.98448 0.23371
12.30611 6.68765 0.20085
4.92251 6.32280 0.11500
1.21386 3.03515 0.04140
8.19203 4.92482 0.00000
6.13095 3.05765 0.23235
4.55473 -2.58707 0.00000
5.73459 -2.24227 0.00000
9.50122 -1.18563 0.01500
15.91919 5.35952 0.07678
4.16051 4.59234 0.15000
11.84904 -1.53911 0.71875
4.83667 6.16634 0.01500
11.86404 -1.15720 0.90701
0.59949 1.68654 0.05000
0.62904 0.60235 0.29192
10.82547 5.66167 0.06674
13.23947 -0.95694 0.07471
8.45845 4.41286 0.00000
12.50546 5.70483 0.01500
3.78328 -1.88624 0.01500
13.63006 6.09362 0.05927
14.29404 -3.01107 0.33436
3.55968 3.96119 0.28500
5.60667 1.40949 0.16500
13.64506 5.71816 0.02881
4.23666 1.77765 0.58210
11.58542 -2.03071 0.10431
0.62009 2.01924 0.00000
3.39068 4.11204 0.27000
13.57285 -0.73787 0.13417
12.91251 -1.33044 0.27664
3.94411 -0.73477 0.15000
6.54684 6.68765 0.34166
15.97126 -0.60253 0.61500
11.92521 -1.64168 0.27626
7.29707 4.35696 0.01500
14.35268 -1.81735 0.25539
7.73736 -2.04507 0.01500
14.12173 -0.92063 0.01500
6.06633 2.29069 0.15000
2.43601 0.77015 0.00000
3.60814 3.34853 0.27000
13.28968 -1.24173 0.01500
9.52646 6.67265 0.08323
8.29404 5.50621 0.07936
14.90587 -0.87683 0.11075
4.88814 2.00659 0.30000
11.21404 6.32222 0.15413
11.30195 6.51973 0.00000
13.32037 5.91442 0.01500
10.97692 6.18046 0.09378
15.76664 4.25765 0.51533
12.16649 -0.55235 0.66791
2.37904 0.92369 0.11667
9.78301 -3.03235 0.54183
4.65331 4.98258 0.16500
4.10087 4.10304 0.28500
9.47904 -2.53783 0.23687
5.40429 1.38101 0.16500
3.50401 1.10299 0.42000
13.52029 -2.58814 0.00000
11.99035 -0.61735 0.27638
13.97891 -2.91170 0.00000
14.30903 6.43630 0.04098
5.22530 1.97123 0.13500
5.23596 0.95453 0.15000
12.21816 4.53272 0.01500
6.58314 -2.81409 0.01500
8.66584 -0.81144 0.01500
8.99056 -0.57235 0.38542
14.28083 -0.85981 0.11500
5.94786 -1.37548 0.00000
0.97904 0.84776 0.02239
6.96325 5.99143 0.01500
12.05035 5.09910 0.01500
10.06512 -0.61725 0.01500
7.16992 4.49142 0.00000
11.33883 6.05865 0.12925
3.46584 0.84735 0.42000
14.29404 -1.92883 0.21021
10.01818 6.05765 0.05898
3.11944 2.06772 0.42000
3.51290 1.91168 0.43500
14.68412 4.97165 0.06745
6.64450 -2.22617 0.03000
4.67904 5.42568 0.60832
8.40498 4.88741 0.01500
13.65624 -2.77682 0.28427
4.69404 4.83774 0.43446
13.56456 6.49602 0.01500
2.50301 2.02927 0.05000
5.53726 1.09933 0.15000
13.04440 -2.66579 0.29295
7.53528 -1.24486 0.01500
3.70538 4.95716 0.15000
7.22126 5.90836 0.11500
12.93334 6.25469 0.12032
5.91955 6.62265 0.06097
2.87014 3.05015 0.52446
14.27904 -1.92790 0.48557
16.19792 5.44165 0.00000
6.45799 4.25765 0.28674
3.64766 4.30169 0.13500
4.36926 3.06762 0.15000
8.70375 4.24265 0.26096
0.87904 0.87676 0.06898
4.82188 1.96653 0.27000
5.91910 0.75255 0.16500
11.70625 -2.94057 0.15859
13.83948 6.67265 0.07912
4.37683 2.94230 0.27000
2.95407 1.76287 0.15000
5.32054 6.67265 0.22132
8.19383 6.45497 0.01500
9.24404 4.93361 0.13647
6.90140 -0.76499 0.06401
2.47904 0.90993 0.26607
3.48434 -1.83059 0.00000
9.21423 4.64131 0.00000
7.42692 6.28574 0.01500
13.56643 -2.82903 0.23273
3.94417 2.70611 0.27000
3.43374 3.41208 0.28500
4.01844 5.56019 0.11500
4.37904 -0.51022 0.26540
9.80280 6.26884 0.00000
3.56254 0.92119 0.43500
13.33157 -1.99263 0.08107
5.82904 5.66774 0.05553
10.89944 -2.62928 0.04775
15.52763 -0.64629 0.00000
12.04796 4.97761 0.01500
6.34174 -1.49660 0.01500
10.04860 -2.77137 0.00000
12.88309 -1.44361 0.01500
14.19061 5.82929 0.00000
9.13211 -0.57235 0.40852
5.35220 6.53528 0.01500
15.47676 -1.48613 0.00000
5.65803 -2.32145 0.01500
15.01186 5.45765 0.24534
10.59949 -2.17224 0.00000
11.42876 6.49267 0.04879
4.08928 0.67822 0.35038
4.21776 -0.39338 0.13500
4.30244 -2.48073 0.06747
6.67896 -1.69361 0.01500
15.38456 5.01581 0.11895
12.77394 4.65550 0.01500
6.35814 -0.96586 0.01500
7.27513 4.30765 0.12583
4.54965 1.20283 0.28500
6.61363 6.39820 0.00000
10.34762 4.63183 0.01500
4.39404 -0.20615 0.23180
14.91403 5.24275 0.11956
11.88201 -2.30719 0.00000
11.44511 -1.83235 0.22461
12.31232 -0.86979 0.01500
7.02171 5.70967 0.01500
9.46404 -2.06444 0.21015
4.57707 -2.81749 0.01500
3.46404 -1.61672 0.45064
10.70160 5.47265 0.40326
2.84992 2.23515 0.03910
6.38383 -0.82386 0.03000
12.50953 6.51404 0.11183
7.21361 -1.78735 0.02734
9.49749 -2.03967 0.00000
13.90827 -1.35558 0.01500
5.86403 4.71297 0.38675
11.82582 -2.46112 0.00000
5.22976 -2.69254 0.03000
3.98427 3.41257 0.28500
3.05930 1.32216 0.27000
5.75550 -2.07031 0.01500
8.60305 4.76101 0.01500
8.52772 4.83171 0.11500
14.20292 5.55122 0.01500
2.96407 1.09906 0.28500
14.59221 -1.52780 0.06135
3.46404 6.15539 0.10041
9.98546 4.82040 0.01500
13.07677 -2.12246 0.28750
3.77342 3.83457 0.27000
3.49100 2.00717 0.43500
7.94797 6.67265 0.48645
6.48917 4.31813 0.00000
6.85538 6.62265 0.04145
13.27856 5.66759 0.07609
0.24688 3.01547 0.04132
14.32403 6.64723 0.09114
11.84904 -1.36537 0.98780
15.90865 4.79030 0.00000
0.52015 0.63515 0.31987
6.56521 -1.12543 0.13000
11.87392 -2.67689 0.03115
4.12432 4.19079 0.13500
2.37904 2.80673 0.13300
4.69206 4.25765 0.56652
2.94218 1.17765 0.35038
13.08973 -1.88235 0.03389
10.11403 6.52267 0.03719
4.17904 1.85257 0.61254
14.24388 -2.29715 0.14762
6.34572 -2.71148 0.01500
5.22953 -2.92088 0.01500
11.28486 5.56875 0.09461
3.64727 3.03886 0.15000
11.82607 -2.34523 0.02371
16.66772 -1.02349 0.01500
9.64611 4.24265 0.26138
4.74877 -3.01735 0.05276
16.25752 -1.73620 0.00000
12.90783 -2.00225 0.04671
14.05592 -1.33227 0.12009
4.06113 6.68765 0.21286
0.99687 2.63515 0.20541
5.83416 1.76939 0.13500
3.27904 0.01230 0.22994
4.35661 5.68442 0.01500
7.43904 5.13454 0.01500
8.06554 -1.57745 0.07388
13.51480 4.24265 0.15089
4.57662 1.67036 0.27000
7.19925 -0.58735 0.03245
9.62717 6.67265 0.29150
8.51403 5.30430 0.16411
8.15808 4.24265 0.07780
7.57409 4.68630 0.01500
2.47904 2.49053 0.08447
16.35529 4.24265 0.49262
7.23082 -2.19252 0.00000
2.67904 1.04666 0.05076
4.26090 -3.01735 0.30581
7.11674 5.13635 0.01500
12.41002 4.79621 0.15264
9.61153 4.85680 0.01500
3.82901 1.79876 0.43500
2.81408 0.57015 0.83847
2.82523 1.03806 0.18380
16.67904 -1.32169 0.17910
10.11041 -2.51112 0.01500
3.90920 0.94565 0.40500
4.12628 4.90177 0.15000
13.57327 -1.70092 0.11352
4.18111 1.70739 0.30000
1.13318 3.00557 0.00000
3.40045 1.10641 0.27000
16.24234 4.32659 0.10753
6.25389 2.40117 0.13500
10.75284 5.84626 0.00000
4.45284 -0.66350 0.18000
3.46404 5.82413 0.32575
4.19497 -1.96993 0.01500
3.82050 -1.70557 0.13500
9.50904 5.69195 0.58537
13.92158 6.31615 0.00000
1.94381 1.42227 0.00000
13.35047 -2.56060 0.00000
8.44287 -1.34963 0.01500
3.48405 4.37265 0.27694
8.96407 5.47265 0.52266
11.92904 -2.95873 0.09918
12.83089 5.53665 0.08183
5.92492 -1.78735 0.03070
12.63355 -3.04735 0.09865
3.46048 3.11884 0.42853
7.49014 -3.00235 0.12189
4.19024 -2.95517 0.03000
10.73621 -3.04735 0.20067
13.82947 5.58656 0.06390
0.61189 3.10015 0.93984
4.93703 5.50587 0.11500
4.37904 0.50498 0.51909
12.04459 -1.31947 0.25555
3.84954 -0.90739 0.13500
4.06097 4.47810 0.16500
10.53254 5.73236 0.00000
3.93441 4.17400 0.27000
4.11002 2.14054 0.30000
10.67904 5.22081 0.10678
3.73274 -3.01735 0.38162
9.49404 5.72704 0.25328
11.97150 -1.81735 0.05173
9.76137 -0.98851 0.03000
5.19181 2.61297 0.13500
13.02286 4.78094 0.02152
9.53905 4.25765 0.59173
14.03938 5.50911 0.00000
7.12345 4.25765 0.08073
13.60279 -3.09735 0.30283
9.69759 4.79547 0.01500
8.66492 -1.05405 0.01500
3.58482 -1.85235 0.11963
13.29768 4.31664 0.01500
4.71832 6.45574 0.00000
4.91002 2.80956 0.13500
5.14961 6.67265 0.00358
0.67904 2.85131 0.18225
12.01829 -0.56735 0.98086
6.09339 5.90123 0.11500
8.84891 4.24869 0.61500
8.20312 5.55936 0.01500
8.62260 -0.58735 0.28462
14.14946 -0.77033 0.15536
13.25647 5.72016 0.09018
12.98003 5.65935 0.06406
5.55394 6.67265 0.42873
6.85913 -3.01735 0.46461
3.17904 3.54775 0.66261
4.72904 0.71024 0.09249
14.23319 -2.85875 0.02977
13.94222 5.43633 0.01500
3.51714 0.52520 0.30000
4.07904 2.65468 0.28067
0.59801 2.66932 0.36000
4.65306 4.47265 0.33023
3.49231 1.94264 0.38093
4.87308 1.38401 0.27000
13.48496 6.67265 0.45238
4.38031 2.98889 0.28500
10.63396 5.47265 0.34920
10.59171 -2.81834 0.13261
6.60407 4.24265 0.10971
7.36947 -2.28791 0.03000
5.81992 0.73815 0.15000
13.39428 -3.03235 0.26139
4.84917 2.39674 0.27000
4.61857 2.20156 0.30000
4.43524 2.02333 0.28500
12.88590 -3.03235 0.04843
10.17254 4.88430 0.01500
12.32131 -0.61735 0.30950
13.66032 -3.09735 0.25407
8.90438 -1.80235 0.13874
15.30954 -1.03059 0.01500
0.77904 2.62527 0.16025
13.17808 -1.88235 0.05692
6.50835 -2.69469 0.03000
13.31390 5.75918 0.00000
9.94241 -0.57235 0.27174
12.46874 5.11628 0.15267
3.61074 -0.93822 0.15000
6.74341 -1.41387 0.03000
1.97904 0.85549 0.07837
12.15196 -3.03235 0.09080
7.09491 -3.01381 0.01500
4.33696 6.17663 0.11500
3.96156 0.41639 0.28500
5.46276 -2.58292 0.01500
13.91072 -1.99904 0.14784
13.09642 -0.61735 0.19377
12.79028 5.20334 0.01500
13.33949 4.64347 0.09618
1.27904 0.85168 0.01555
8.13566 -1.16251 0.01500
13.08891 -2.01818 0.28750
12.33552 5.45765 0.05853
13.58991 -1.66566 0.16333
10.71514 5.47265 0.22654
0.97904 2.14432 0.01260
4.77608 -2.19774 0.01500
6.95353 -2.17459 0.01500
4.07903 2.97531 0.06750
14.30903 5.54266 0.41572
5.13933 1.33741 0.28500
14.87283 -1.65285 0.07373
4.20762 4.60015 0.13500
0.54065 1.10184 0.27000
1.07904 2.99853 0.14274
14.32403 6.25681 0.28299
6.96498 6.67265 0.18361
5.10902 1.81677 0.30000
0.66399 0.72015 0.71741
6.23806 5.66955 0.11500
4.74679 2.74931 0.28500
1.10275 1.42007 0.18000
4.65001 -2.32656 0.01500
10.61602 -1.80235 0.26223
6.39167 3.05765 0.27667
0.20891 1.81611 0.08291
11.70459 6.02332 0.04944
0.77904 0.79877 0.05579
14.29404 -3.05000 0.77113
4.80756 5.45765 0.23417
8.29404 -2.48726 0.31194
6.39200 5.70050 0.11500
2.90539 1.24669 0.28500
3.55095 0.56224 0.15000
10.06523 -1.77640 0.00000
8.96805 5.01948 0.01500
8.22904 6.54478 0.04059
13.40524 -2.00456 0.15859
1.57704 0.62015 0.00509
4.42021 -2.02863 0.00000
10.73832 5.57302 0.04299
4.62602 -2.80431 0.05468
2.67904 2.23596 0.13025
16.70904 5.40987 0.40438
14.51947 5.34926 0.01500
3.46685 -0.36547 0.13500
12.25217 -2.61227 0.06424
6.12912 6.03885 0.11500
8.25757 5.91045 0.01500
12.00577 -0.86342 0.01500
1.83282 1.49756 0.05000
4.28888 -1.66502 0.13500
3.17904 3.07138 0.06959
0.53480 0.62015 0.23905
9.91785 -1.78735 0.02601
0.71633 2.73515 0.29844
11.93170 5.73319 0.11500
4.37904 -0.40663 0.57463
10.38400 6.20147 0.12682
16.48959 5.19366 0.01500
13.91592 -3.11235 0.13685
6.02102 -3.00235 0.41413
1.82636 1.68516 0.00000
11.30700 -3.03235 0.48903
3.80472 2.45655 0.28500
3.72871 1.11259 0.42000
12.91509 -1.47074 0.01821
10.89199 6.35306 0.01926
10.67381 5.43407 0.31500
9.56283 4.87917 0.11500
14.90635 -1.32538 0.15607
2.07904 2.43459 0.13953
12.38906 -0.56735 0.82706
5.31337 1.68537 0.18000
0.77904 2.33506 0.01968
0.92519 2.04102 0.10000
16.20114 4.24404 0.61500
13.64684 5.64322 0.18013
8.93996 -0.58735 0.18241
14.70695 4.99280 0.10183
6.36178 2.03228 0.15000
4.24735 5.47265 0.18705
4.36412 -2.77212 0.01500
5.39397 5.45765 0.32344
1.95202 1.43806 0.01181
13.51691 6.19556 0.13878
5.71176 -1.94318 0.13000
14.85270 4.98447 0.15641
16.57756 4.93030 0.02354
6.29016 6.67265 0.23188
3.47904 -2.70476 0.26390
1.27904 1.02939 0.05146
12.85373 -2.65938 0.15891
3.61713 -1.93684 0.12384
9.13800 4.47518 0.00000
15.85063 -0.61735 0.44295
13.70271 6.34993 0.04303
5.82904 -2.06851 0.03516
13.23073 -0.61735 0.35408
4.05177 1.02542 0.15000
5.16666 6.67265 0.22225
4.18017 5.71680 0.11500
1.05716 1.33806 0.11747
4.69404 -0.92466 0.20966
13.75885 -0.61735 0.58134
6.44516 1.82765 0.07830
12.12126 6.64372 0.11500
5.31560 5.96764 0.01500
8.27904 4.85684 0.09722
7.61404 -1.91827 0.03000
14.17272 6.39072 0.08387
9.46404 -2.19038 0.08889
3.67233 0.06264 0.28500
13.75410 4.30765 0.04840
14.50885 4.85765 0.03460
0.67904 2.84848 0.34451
0.87904 2.38593 0.01609
0.95858 2.33515 0.12306
8.54120 5.22899 0.00000
9.94630 -0.57235 0.16135
