# .PCD v0.7 - Point Cloud Data file format
VERSION 0.7
FIELDS x y z
SIZE 4 4 4
TYPE F F F
COUNT 1 1 1
WIDTH 1968
HEIGHT 1
VIEWPOINT 0 0 0 1 0 0 0
POINTS 1968
DATA ascii
0.44219 4.36152 0.16092
-0.43981 4.54805 0.08142
-0.03379 4.46320 0.14868
0.16419 4.74061 0.09860
0.14819 4.95123 0.09657
0.14178 5.03520 0.05569
-0.42381 4.87331 0.08100
-0.04698 4.16920 0.08815
0.45382 5.03949 0.18600
0.10997 5.05120 0.04889
0.18931 4.27773 0.03600
0.17900 4.31895 0.03600
-0.21049 4.62674 0.02000
0.25708 4.46320 0.07678
0.23457 4.16920 0.14045
0.35820 4.37222 0.02000
0.36168 4.44720 0.07025
-0.24216 4.40506 0.02000
0.04108 4.46320 0.11370
0.38304 4.98703 0.03600
-0.39616 4.18616 0.03600
-0.43981 4.89003 0.08448
-0.43981 4.84836 0.11895
0.37750 4.25753 0.02000
0.00140 4.63145 0.02000
0.44219 4.70458 0.11125
0.43699 5.05120 0.15895
-0.30736 4.75257 0.02000
-0.16630 4.74120 0.10482
-0.33726 4.56775 0.02000
-0.21983 4.30006 0.02000
0.11513 4.16920 0.11424
-0.18233 5.04875 0.18600
-0.31355 4.71963 0.03600
0.20142 4.75720 0.06516
-0.11812 4.51425 0.03600
0.20578 4.74120 0.11036
0.32570 4.56754 0.02000
0.16419 4.72556 0.05751
0.38381 4.15320 0.02559
0.16419 4.98151 0.11352
-0.14581 4.24344 0.17505
-0.43981 4.72844 0.11833
-0.40051 4.15320 0.12114
0.18862 4.75720 0.13405
0.10590 4.32007 0.02000
-0.25576 4.16593 0.18600
0.16910 4.75720 0.09753
0.14819 4.97349 0.08544
-0.43619 4.37306 0.02000
-0.42381 4.87174 0.10811
-0.09336 4.34041 0.02000
-0.42408 4.15320 0.04739
-0.07302 4.66576 0.02000
-0.02567 4.15320 0.10052
0.09307 5.05120 0.16493
0.16419 4.91759 0.09691
-0.43981 4.26150 0.04134
0.03731 5.05120 0.17042
-0.38842 4.44720 0.08406
-0.12981 4.41153 0.15466
-0.28675 4.98487 0.02000
-0.15955 4.56592 0.03600
-0.27618 4.82611 0.03600
-0.14581 4.35208 0.03752
0.32185 4.16920 0.09782
-0.36556 4.44720 0.14428
0.31921 4.44720 0.07171
0.03956 4.46320 0.07459
0.16990 5.03520 0.08173
-0.02380 4.21663 0.02000
0.17633 4.46320 0.16920
-0.30650 4.38253 0.03600
-0.14581 4.90759 0.11974
-0.20685 4.74819 0.18600
0.08955 4.74120 0.03962
0.16419 4.68823 0.11442
-0.38466 4.46320 0.11226
0.15083 4.21786 0.18600
-0.19866 4.74120 0.06608
-0.03786 4.71509 0.02000
0.45374 4.56286 0.02000
0.14819 4.41911 0.12269
-0.32527 4.44720 0.11971
-0.04786 4.94932 0.03600
-0.33129 4.62822 0.02000
0.35021 4.75720 0.09808
-0.05524 4.44720 0.10750
-0.14581 4.26194 0.15150
0.35604 4.75720 0.16794
0.37622 4.75720 0.18182
0.06303 4.99030 0.03600
0.30555 5.04131 0.18600
-0.37969 4.48945 0.02000
-0.37450 5.03520 0.14091
0.22899 5.05120 0.03178
-0.06844 4.22856 0.03600
0.36911 5.03520 0.12878
-0.04861 4.82575 0.03600
0.04914 4.19941 0.03600
0.06250 4.15320 0.11266
-0.43981 4.94715 0.15401
0.08588 4.98322 0.02000
-0.14581 4.51379 0.18298
-0.43973 4.97796 0.02000
0.18021 4.88306 0.02000
0.01565 4.46320 0.09672
-0.30999 4.15320 0.10145
0.11184 4.20977 0.02000
0.25896 4.15320 0.11682
-0.42381 4.58879 0.09086
0.44219 4.73521 0.14194
-0.43981 4.42271 0.12333
-0.38405 4.15320 0.02728
0.02366 4.44720 0.10573
-0.06253 4.75720 0.07828
0.41691 4.15320 0.11880
0.38111 5.03520 0.11936
0.14819 4.57602 0.11632
-0.11147 4.16920 0.08617
0.16419 4.37407 0.11681
0.32518 4.78112 0.02000
0.36050 4.52508 0.03600
-0.17021 4.74120 0.18029
-0.40403 4.74433 0.02000
-0.32186 4.71775 0.02000
0.06192 4.46320 0.16405
0.14779 4.76977 0.03600
-0.27160 4.93484 0.03600
0.39427 4.99839 0.02000
0.16419 5.03261 0.15530
0.03656 4.74120 0.13728
0.39605 4.36885 0.02000
0.14819 4.42103 0.10075
0.16419 4.22916 0.16779
0.11330 4.56644 0.02000
0.11467 4.53421 0.03600
-0.17243 4.65151 0.03600
0.45819 4.53293 0.05913
-0.43805 4.17944 0.02000
0.45819 4.67149 0.16653
-0.37758 4.76653 0.02000
-0.12981 4.78854 0.12089
-0.08502 4.16428 0.18600
-0.42381 4.94472 0.10010
-0.03154 5.03520 0.06775
0.33482 4.75720 0.11679
-0.12981 4.31397 0.04255
-0.05504 4.74120 0.17859
0.26674 4.98712 0.03600
0.17409 4.60564 0.03600
0.14819 4.42933 0.04434
0.25796 4.16761 0.02000
-0.42661 4.30414 0.02000
0.36991 4.16920 0.12825
-0.08352 5.03520 0.14712
-0.41930 4.37332 0.03600
-0.07115 4.49161 0.03600
-0.12981 5.02054 0.17879
-0.30478 4.74120 0.18063
-0.14581 5.02149 0.15008
-0.18641 4.80565 0.03600
0.35976 4.27043 0.03600
0.44219 4.83315 0.11417
-0.37940 4.70171 0.03600
-0.06646 4.72358 0.02000
-0.42381 4.78309 0.07120
-0.43981 4.34578 0.16748
-0.20529 4.15320 0.14551
-0.36421 4.50603 0.02000
0.44219 4.38962 0.16474
0.44219 4.26271 0.09616
0.30069 5.03520 0.05577
0.44902 4.75041 0.18600
-0.42381 4.25121 0.08511
-0.42573 4.20727 0.02000
0.16419 4.40908 0.17306
0.41550 4.91177 0.03600
0.33174 4.16920 0.18243
-0.14581 4.93561 0.15678
0.19492 4.15320 0.10720
0.44946 4.81736 0.02000
-0.42043 4.16920 0.14370
-0.08493 4.60585 0.02000
0.40955 4.46675 0.02000
0.21634 4.16920 0.15453
-0.13022 4.52792 0.02000
-0.11932 4.46289 0.18600
0.31721 4.93222 0.03600
0.24366 5.03520 0.07418
-0.14607 4.64296 0.02000
0.16419 4.81115 0.06351
0.09169 4.16920 0.05936
0.45819 4.98772 0.04793
-0.12981 4.30268 0.18157
-0.42258 4.48009 0.02000
-0.07301 4.30253 0.03600
-0.08700 4.70541 0.02000
-0.02855 4.16920 0.14168
0.34746 4.72338 0.02000
-0.11437 4.36133 0.03600
0.31994 4.46320 0.04031
0.13260 4.74120 0.08716
-0.42381 4.40236 0.03946
-0.42381 4.93830 0.15727
-0.01800 5.01151 0.03600
0.44219 4.40012 0.17332
-0.42380 4.15320 0.14712
0.04894 5.05120 0.12305
-0.16129 4.74120 0.09943
0.16419 4.80751 0.12397
-0.37118 4.38212 0.03600
-0.00946 5.05120 0.03043
-0.43981 4.58463 0.07132
-0.15294 4.19027 0.02000
0.44219 4.31074 0.13664
0.25443 4.40990 0.02000
-0.01330 4.56540 0.03600
-0.16858 4.99955 0.02000
0.44219 4.73381 0.12591
-0.15638 4.46320 0.11308
0.39561 4.63146 0.02000
-0.42825 4.42964 0.02000
-0.02489 5.05120 0.10964
-0.32999 4.49519 0.02000
-0.04088 4.80904 0.03600
0.43181 4.15320 0.15463
0.07322 4.78548 0.03600
-0.15480 4.74120 0.07087
-0.21008 4.75720 0.12976
0.43709 4.74120 0.18348
0.24602 4.15320 0.15182
0.41723 5.03520 0.10606
-0.26672 4.44720 0.08030
-0.28206 4.46320 0.09448
0.30731 4.56381 0.03600
0.05652 4.87101 0.03600
-0.32017 4.46320 0.08852
0.30485 4.48165 0.03600
0.16419 4.46535 0.10274
0.37373 4.79202 0.03600
0.15875 5.00129 0.18600
0.16419 4.25902 0.13909
-0.34788 4.16920 0.12208
0.16419 4.34924 0.11370
-0.43981 5.02641 0.07239
-0.14581 4.25588 0.04865
-0.10731 4.36848 0.03600
-0.43981 4.22552 0.15802
0.27161 4.44720 0.16731
0.16280 5.05120 0.18057
0.16419 4.50868 0.18158
-0.12574 4.67887 0.03600
0.16419 4.89616 0.06345
0.33238 4.23257 0.02000
-0.10266 4.75318 0.02000
0.09059 5.05120 0.06968
-0.25333 4.94819 0.03600
-0.27174 4.56628 0.02000
0.39177 4.46320 0.04478
0.18188 4.15320 0.12245
-0.14495 4.15320 0.03245
-0.20362 4.39624 0.02000
0.45819 4.35038 0.06298
0.23273 4.74120 0.09842
0.28193 4.94702 0.02000
0.30772 4.88798 0.03600
-0.01758 4.60987 0.03600
-0.43981 4.72034 0.15951
-0.13854 4.23393 0.18600
0.14819 4.17703 0.09084
-0.02083 4.78514 0.03600
-0.14581 4.71996 0.06317
-0.43981 5.04831 0.06064
0.16419 4.50157 0.18168
-0.14581 4.40039 0.13200
-0.43981 4.52382 0.17977
-0.43981 4.79734 0.10095
0.05978 4.94313 0.03600
-0.13590 4.33467 0.18600
0.45819 4.55207 0.17409
0.29043 4.44720 0.05596
-0.35499 4.15320 0.11051
-0.29956 4.45078 0.18600
-0.04863 4.28518 0.02000
0.45819 5.05064 0.10183
-0.13227 4.63472 0.02000
-0.17434 4.35037 0.02000
0.24200 5.03987 0.02000
0.03082 5.03520 0.15438
-0.07553 5.03520 0.08122
0.09710 4.84083 0.02000
0.10318 5.00913 0.03600
-0.19739 5.03520 0.15846
0.18559 5.01891 0.03600
0.40949 4.99993 0.03600
-0.12981 4.50021 0.10438
0.44219 4.57783 0.14789
-0.16377 4.63236 0.03600
-0.28210 4.57535 0.02000
-0.14581 4.17319 0.17383
-0.07110 4.42612 0.03600
0.08333 4.75720 0.11857
-0.14581 4.47863 0.18105
-0.38213 4.15320 0.06427
-0.35374 4.39231 0.03600
-0.24133 4.27418 0.03600
-0.04123 4.77399 0.03600
-0.31033 4.94788 0.02000
-0.37196 4.92851 0.02000
-0.13138 4.39483 0.18600
-0.11474 4.74781 0.18600
0.16419 4.63068 0.07843
0.43061 4.46320 0.16881
0.35507 4.87030 0.02000
0.08549 4.44720 0.08667
-0.37328 5.03520 0.16575
-0.42381 4.62889 0.07882
-0.43117 5.02442 0.02000
0.29410 4.42165 0.02000
0.14588 4.26288 0.03600
0.29844 4.74120 0.06186
0.44219 4.89234 0.18414
-0.41976 5.05120 0.02371
0.00535 4.91208 0.03600
0.32796 4.54545 0.02000
0.45819 4.63777 0.16410
-0.11028 4.31402 0.03600
-0.27291 4.84376 0.03600
-0.22882 4.20518 0.03600
0.45819 4.77289 0.16151
0.37535 4.75720 0.16392
-0.10133 4.20106 0.03600
-0.16128 4.26480 0.03600
0.31306 4.24968 0.02000
0.04766 4.55786 0.03600
-0.41768 4.74120 0.10517
0.15494 4.17106 0.18600
-0.12981 4.99319 0.10970
0.16419 4.50572 0.07424
-0.11810 5.03520 0.14722
-0.36769 4.69871 0.02000
-0.42381 4.22500 0.09286
-0.34093 4.92132 0.03600
0.44219 4.36386 0.14239
0.15463 4.16727 0.18600
-0.06075 4.34376 0.02000
-0.42381 4.81591 0.11895
-0.12996 4.17193 0.02000
0.44219 4.93228 0.15859
-0.04112 4.58280 0.03600
-0.27633 4.81654 0.02000
-0.28569 4.84267 0.03600
-0.42381 4.97947 0.16071
0.44219 4.44100 0.17667
-0.08195 4.43337 0.03600
0.14819 4.43693 0.17704
-0.08585 4.70772 0.02000
-0.29119 4.98902 0.03600
-0.43981 4.45174 0.03585
0.16419 4.81394 0.07520
0.10050 4.46320 0.13948
-0.25341 4.16920 0.15872
0.41077 4.15320 0.02577
0.44219 4.81958 0.05565
0.01128 4.43676 0.03600
-0.31441 4.44720 0.18368
0.11256 4.52235 0.02000
0.37633 4.16920 0.09198
0.44219 4.50409 0.08719
0.00058 4.46320 0.10706
0.45819 5.04434 0.02293
-0.14599 5.00923 0.02000
-0.38438 4.26676 0.02000
0.43462 4.18321 0.02000
-0.42124 4.37775 0.02000
-0.14581 4.61180 0.14333
-0.38158 4.67465 0.02000
0.34631 4.88605 0.03600
-0.20337 4.75720 0.06934
0.44219 4.63680 0.11586
-0.06408 4.15320 0.03181
-0.42381 4.61143 0.11841
0.11754 4.47326 0.03600
0.33630 4.42665 0.03600
-0.42381 4.56492 0.15327
0.39785 5.03520 0.12349
0.33265 4.75720 0.11458
-0.41039 4.75720 0.12321
0.19417 4.82258 0.02000
0.16419 5.03322 0.05319
-0.14581 4.24957 0.14810
-0.12354 4.28484 0.03600
0.45025 4.19550 0.02000
-0.43981 4.87886 0.15812
-0.43453 5.05120 0.16831
-0.12981 4.68784 0.06372
-0.14581 4.51101 0.09420
0.16419 4.34792 0.17460
-0.19196 4.87345 0.03600
0.45819 4.56213 0.09430
0.01455 5.05120 0.05763
-0.19821 5.05120 0.14832
-0.10054 5.01840 0.03600
-0.42381 4.30497 0.16342
0.14819 4.63116 0.07384
-0.04987 4.59677 0.02000
0.16692 4.70303 0.03600
0.18981 4.55075 0.02000
-0.38252 5.05120 0.07204
-0.04326 4.20031 0.02000
0.45819 4.42203 0.02163
-0.14979 5.03520 0.03779
-0.34676 5.04800 0.18600
-0.38971 4.21687 0.03600
0.39683 4.62771 0.03600
0.44219 4.88437 0.13550
0.04138 4.44720 0.15380
-0.35898 4.74120 0.13002
0.30967 4.75720 0.17523
-0.43981 4.96780 0.15360
-0.34199 5.05120 0.13082
0.25491 4.93555 0.03600
-0.33707 4.15320 0.07036
-0.38659 4.94201 0.02000
-0.05497 4.49746 0.02000
0.11976 4.89665 0.03600
0.30631 4.74120 0.07532
0.14819 4.32168 0.10044
-0.37465 4.16920 0.12580
-0.12601 4.98518 0.03600
0.21450 4.70697 0.02000
-0.14581 4.25788 0.08816
0.37148 4.46320 0.05087
0.16239 5.05120 0.09878
-0.32087 5.00469 0.02000
-0.29159 4.75720 0.04897
-0.43981 4.24101 0.06401
0.45819 4.54799 0.07731
0.29981 5.05120 0.14738
0.08760 4.94383 0.02000
-0.12981 4.24992 0.11572
0.16419 4.19960 0.10802
0.44690 5.05120 0.08142
0.04514 4.15320 0.03317
0.31878 4.76822 0.03600
0.29737 4.92622 0.03600
-0.42381 4.85870 0.16397
-0.37023 4.64206 0.03600
-0.07462 4.76394 0.03600
-0.14581 4.41153 0.13168
0.29115 4.41542 0.02000
-0.10055 4.55639 0.02000
0.14819 4.87166 0.08164
0.07026 4.74120 0.09427
-0.37504 4.53187 0.03600
0.21831 4.15320 0.09643
-0.14581 4.98597 0.16629
-0.42381 4.85115 0.15919
0.23262 5.05120 0.11789
0.16419 4.54056 0.08182
-0.12981 4.84633 0.17039
0.34386 4.75043 0.18600
-0.01540 4.63432 0.02000
0.42551 4.93780 0.03600
0.13246 4.39756 0.02000
-0.04764 4.32318 0.02000
-0.16771 4.15320 0.05400
-0.31847 4.15483 0.18600
-0.21332 4.75720 0.13213
-0.09241 4.71544 0.02000
-0.12809 4.63611 0.02000
-0.15969 5.03520 0.13701
0.14819 4.31066 0.14431
0.44219 4.72166 0.16590
-0.10332 4.68813 0.02000
0.00403 5.05120 0.08184
-0.21863 4.95779 0.03600
-0.15546 4.95203 0.02000
-0.42415 4.82650 0.18600
-0.43981 4.15462 0.04633
-0.20804 4.74120 0.18300
-0.34934 4.16920 0.11910
0.24397 4.26976 0.03600
0.40039 4.98944 0.03600
0.26812 4.61778 0.03600
-0.16457 5.02436 0.03600
0.16419 4.72111 0.04828
0.23962 4.91660 0.02000
0.44219 4.60211 0.05542
-0.32408 4.56472 0.02000
0.26147 4.20943 0.02000
-0.36091 4.72669 0.02000
-0.24586 4.51374 0.03600
0.44219 4.66888 0.08427
0.27959 4.73025 0.02000
0.14819 4.32984 0.15842
0.32858 4.43937 0.02000
-0.07170 4.87172 0.02000
-0.07699 4.26305 0.03600
0.34914 5.05120 0.07321
0.19278 4.99823 0.03600
-0.43981 4.66955 0.02162
0.14819 4.33468 0.11883
-0.12240 4.45647 0.02000
0.27837 4.32463 0.03600
-0.17069 4.16920 0.04886
0.36566 4.35215 0.03600
0.10415 4.82347 0.03600
-0.14936 4.23014 0.03600
0.31757 4.38013 0.02000
-0.19895 4.95714 0.03600
-0.43981 4.43188 0.14365
-0.20818 4.93864 0.03600
0.40735 4.15632 0.18600
-0.15701 5.05120 0.02090
-0.43588 4.16395 0.02000
0.04644 5.05120 0.07299
-0.08867 4.43062 0.02000
-0.05945 4.47532 0.02000
0.28280 4.75720 0.13841
0.28764 4.45241 0.18600
0.44219 4.27451 0.08818
-0.28646 4.92867 0.03600
-0.04866 5.05120 0.06173
0.21293 4.36085 0.02000
0.06948 4.15320 0.03201
0.31526 4.73309 0.02000
0.28729 5.05120 0.07347
0.41457 4.16771 0.18600
0.44219 4.44529 0.12858
-0.43981 4.98071 0.02727
0.16419 4.66073 0.11098
-0.19452 4.74120 0.07393
0.42781 4.84664 0.03600
-0.16354 4.16950 0.02000
-0.14581 4.30770 0.07395
-0.25805 4.57818 0.03600
0.42154 4.46320 0.13305
0.14819 4.88108 0.04206
0.27655 4.49006 0.02000
-0.15430 5.03520 0.11264
-0.22607 5.03520 0.04024
0.19562 4.70211 0.03600
-0.21612 4.81992 0.02000
-0.42547 5.00396 0.18600
0.28436 5.03520 0.06358
0.44219 4.49062 0.10962
0.16549 4.15320 0.13701
-0.14581 4.93650 0.07028
-0.01240 5.00337 0.02000
-0.18229 4.46266 0.02000
0.27244 4.46597 0.03600
-0.12981 4.54437 0.11290
0.10189 4.69309 0.02000
0.01814 4.36430 0.02000
0.44219 4.88417 0.09845
-0.12981 4.65265 0.10202
-0.36920 4.46320 0.04892
-0.27676 4.47378 0.03600
0.07652 5.05120 0.14387
-0.42381 4.89410 0.17792
-0.11427 4.75720 0.13421
0.05077 4.45218 0.18600
0.06875 4.15320 0.16312
-0.07859 4.16920 0.07312
0.22105 4.58618 0.02000
-0.13468 4.43561 0.18600
0.10889 4.15320 0.16174
-0.43981 4.18032 0.03881
-0.31808 4.15320 0.11705
-0.19578 4.85872 0.03600
-0.33036 4.16920 0.18216
0.44219 5.01436 0.09522
-0.11133 5.03520 0.14285
-0.14581 4.37808 0.11294
0.11182 4.88817 0.02000
0.41354 4.42133 0.03600
-0.39422 4.42663 0.03600
-0.14581 5.03191 0.09702
-0.12981 4.46908 0.10302
0.45819 4.27926 0.02269
0.01565 4.89973 0.03600
-0.41487 4.85203 0.03600
-0.01187 4.86185 0.03600
-0.43981 4.25071 0.14644
0.14819 4.53986 0.10611
0.30220 4.74120 0.16324
0.14819 4.44527 0.13569
-0.12981 4.65532 0.05451
-0.43981 4.89128 0.11043
0.29665 5.00038 0.03600
-0.34748 4.48887 0.02000
-0.43981 4.16569 0.13311
0.35141 4.44720 0.05310
-0.20634 4.43076 0.03600
0.08676 5.05120 0.04952
-0.25935 4.63647 0.03600
-0.41106 4.16920 0.07232
0.26226 4.65103 0.03600
-0.16429 4.27089 0.03600
0.18991 4.64789 0.03600
-0.42381 4.77118 0.13922
0.45819 4.61279 0.07223
0.27782 4.46320 0.14636
-0.30132 4.59224 0.02000
-0.27245 4.55894 0.03600
0.03099 4.85912 0.03600
0.22998 4.57585 0.02000
0.08728 4.46006 0.02000
-0.07557 4.82076 0.02000
-0.04044 4.75720 0.14705
0.44138 5.05114 0.18600
0.14664 4.41053 0.02000
0.32356 4.50856 0.02000
-0.42381 4.97627 0.12132
0.16419 4.91235 0.11201
-0.43091 4.72982 0.18600
-0.17966 4.75720 0.13418
-0.04326 4.42585 0.02000
0.23483 4.33878 0.02000
0.16419 4.24981 0.08458
0.14819 4.17498 0.10147
-0.12981 4.27973 0.14504
-0.28976 4.44720 0.07587
-0.24606 4.91576 0.02000
0.16419 4.71254 0.14469
-0.43981 4.61509 0.07673
0.38257 4.98118 0.03600
0.16419 4.81712 0.10906
0.32096 5.05116 0.02000
0.34425 4.75720 0.05381
0.21666 4.72588 0.03600
0.45819 4.69928 0.15207
0.32445 4.16920 0.05436
-0.40563 4.16920 0.12191
-0.43981 4.85916 0.13803
-0.12981 4.27111 0.08791
0.25098 4.46449 0.02000
0.43005 4.44720 0.16552
-0.09458 4.36678 0.03600
-0.21672 5.03520 0.14763
-0.20142 4.45308 0.18600
0.18435 4.95744 0.02000
0.26471 4.44720 0.06571
0.44219 4.69937 0.15874
0.28222 4.63902 0.03600
0.06769 4.39403 0.03600
0.08291 4.46320 0.09084
0.45819 4.57297 0.07702
0.19281 4.48583 0.03600
0.22641 4.17389 0.03600
0.30784 4.64900 0.03600
-0.12457 4.17446 0.02000
-0.43981 4.57348 0.06061
0.06649 4.16696 0.18600
-0.02791 5.00158 0.03600
0.11051 5.03520 0.11752
0.35483 4.74120 0.17225
-0.11994 4.49975 0.02000
-0.34010 4.75720 0.12570
0.14645 4.19676 0.02000
-0.33545 4.75720 0.08844
-0.24161 4.69713 0.02000
-0.02658 4.74120 0.06675
-0.33149 4.36759 0.02000
-0.12981 4.42303 0.18394
-0.12981 4.21462 0.05271
-0.08420 4.40067 0.03600
0.22264 4.55326 0.02000
0.32301 4.18467 0.02000
-0.15411 4.15320 0.18344
0.07999 5.05120 0.13588
0.44219 4.34234 0.05038
0.45819 4.16793 0.09008
0.41576 4.47631 0.03600
0.14819 4.38466 0.16963
-0.23129 4.46320 0.14202
-0.37289 4.60566 0.03600
-0.00812 4.57510 0.02000
-0.04997 5.05120 0.14256
-0.04499 4.73297 0.02000
0.45819 4.70725 0.06763
-0.19184 4.75720 0.09279
0.31933 4.53725 0.03600
-0.12981 4.65627 0.08401
0.33842 4.69280 0.03600
-0.14058 5.01766 0.02000
-0.14581 4.23783 0.17560
0.38259 4.96038 0.02000
-0.14581 4.79556 0.08019
0.20653 4.86844 0.03600
0.18303 4.66317 0.03600
0.34778 4.74120 0.17787
-0.05163 4.37427 0.03600
0.31054 5.03520 0.06061
-0.32911 4.23871 0.03600
-0.19674 5.03520 0.13579
-0.11195 4.44149 0.02000
-0.02026 4.20873 0.03600
0.01829 4.35098 0.03600
-0.30239 4.85208 0.03600
-0.18782 4.46320 0.08467
-0.02407 4.68542 0.03600
-0.26455 4.52607 0.03600
0.14530 4.46320 0.11174
0.36342 4.38815 0.03600
-0.42577 4.15489 0.18600
-0.14581 4.44525 0.06905
0.33983 4.46320 0.18321
0.24232 4.46320 0.05674
0.19320 4.15320 0.09908
-0.31654 4.85979 0.03600
-0.23823 4.44720 0.14170
0.07382 4.75720 0.18482
-0.43981 4.67757 0.10975
0.16419 4.33243 0.14063
-0.43255 5.00107 0.02000
-0.43981 4.49138 0.12525
-0.12981 4.67907 0.07320
0.45819 4.90487 0.09828
-0.09445 4.15320 0.02665
-0.12981 4.68094 0.12340
0.35256 4.95394 0.02000
-0.29729 5.05120 0.04821
0.24290 4.76299 0.02000
-0.43981 4.23550 0.06469
0.14357 4.15320 0.08974
-0.09990 4.84598 0.02000
-0.12407 4.15414 0.18600
-0.03722 5.03520 0.06251
-0.02217 4.97992 0.03600
0.08807 4.39839 0.02000
0.06390 4.87949 0.03600
-0.07572 5.04052 0.18600
0.31984 4.15320 0.05083
-0.14581 4.85600 0.09662
-0.43594 4.49832 0.02000
0.01369 4.78891 0.02000
0.20876 4.80525 0.03600
0.17526 4.75720 0.10269
0.03499 4.15320 0.02283
0.10360 5.05120 0.08864
-0.35968 5.03520 0.10029
0.45819 4.98223 0.09253
0.14819 4.19165 0.05125
-0.02077 4.46320 0.16529
0.35793 4.43850 0.02000
0.39322 4.85557 0.03600
-0.25249 4.22466 0.03600
0.04660 5.02253 0.02000
-0.43981 4.80313 0.11266
0.18136 4.46320 0.14838
0.16419 4.24387 0.12930
0.15920 4.51261 0.18600
0.35317 4.67042 0.03600
0.45819 4.73456 0.04549
0.13704 4.52711 0.03600
0.36176 5.03520 0.10951
0.16419 4.71920 0.10793
0.20046 5.05120 0.14582
0.45819 4.33940 0.18037
-0.09848 4.99527 0.03600
-0.06234 4.46320 0.07925
-0.10673 4.41565 0.03600
0.05992 4.55253 0.02000
0.06689 4.44720 0.17977
-0.10812 4.74120 0.17979
0.39760 4.74240 0.18600
0.37828 5.03567 0.02000
0.18315 4.20293 0.02000
0.38780 4.61820 0.02000
0.42585 5.04848 0.18600
0.29719 4.28054 0.02000
0.08916 4.44720 0.06482
0.39723 5.02597 0.02000
-0.35166 4.19742 0.03600
-0.39824 4.28844 0.02000
-0.28293 4.44762 0.02000
0.14819 4.91669 0.11464
0.05160 4.16920 0.11432
-0.07992 5.03520 0.17595
-0.14034 4.15320 0.08277
-0.13462 4.15320 0.11184
-0.13423 4.52355 0.02000
-0.43981 4.30934 0.10183
0.10660 4.16371 0.02000
-0.11806 5.03520 0.13397
0.38753 4.15320 0.17179
-0.29701 4.16920 0.06094
0.14705 4.96937 0.03600
0.45819 4.28873 0.08329
0.32035 4.75720 0.07597
0.27096 4.15320 0.17825
0.45819 4.21397 0.04852
0.36235 4.70209 0.03600
-0.43981 4.33992 0.02192
-0.35155 4.15320 0.02423
-0.20749 5.05120 0.04352
-0.05397 4.16920 0.16529
-0.43415 4.30585 0.02000
-0.14581 4.85033 0.11995
0.32752 4.46320 0.03699
-0.04227 4.82338 0.02000
-0.02564 4.74120 0.09459
0.22587 5.03520 0.10097
-0.28832 4.74120 0.04886
0.44219 4.36463 0.08114
0.21606 5.04775 0.18600
0.14819 4.31740 0.03770
-0.09878 4.75720 0.05050
-0.04117 4.80084 0.02000
-0.01177 4.41776 0.02000
0.11015 4.22719 0.02000
0.24299 5.05120 0.17928
-0.02400 4.75720 0.10464
0.35327 4.75720 0.06626
0.42446 5.03520 0.03693
-0.18646 4.81806 0.02000
-0.31964 4.49884 0.03600
0.39713 4.29499 0.02000
0.04168 4.46320 0.11542
0.16419 4.93100 0.13805
-0.06621 4.74120 0.15018
-0.35033 4.74120 0.07338
-0.12981 4.19081 0.13760
-0.19787 4.67641 0.03600
-0.00104 4.75122 0.02000
-0.12981 4.86027 0.11778
0.33662 4.44720 0.03784
0.14819 4.85249 0.16063
0.23337 5.03945 0.02000
-0.15992 4.44720 0.04807
-0.00591 4.75720 0.18314
-0.02482 4.49023 0.02000
-0.42381 4.71984 0.13689
0.14819 4.53946 0.09022
-0.38630 4.74120 0.14861
-0.22315 4.63328 0.03600
-0.41767 4.51871 0.03600
-0.43981 4.40572 0.17272
0.12365 4.44720 0.08801
0.45819 4.15351 0.06249
0.38896 4.71499 0.03600
-0.14581 4.95199 0.10684
0.42718 4.86488 0.03600
0.04086 4.84215 0.03600
0.16419 4.97882 0.18033
0.33005 4.22840 0.03600
0.03490 4.16920 0.16747
0.45819 4.77413 0.07529
0.33474 4.81660 0.02000
0.10153 4.15320 0.07861
-0.09804 4.74120 0.15640
-0.12030 4.15320 0.17922
0.10362 4.75720 0.14329
-0.40158 4.15320 0.10902
0.03922 5.05120 0.07360
-0.09156 4.85226 0.02000
-0.05789 4.66096 0.02000
0.45819 4.45569 0.16494
-0.15827 5.05120 0.13818
-0.09418 4.26369 0.03600
-0.36736 4.46320 0.06403
-0.42340 4.50630 0.03600
-0.20588 4.79628 0.02000
0.39830 4.46320 0.09224
0.45819 4.52430 0.11867
-0.12981 4.80698 0.14911
0.17133 4.93793 0.03600
-0.35071 4.57877 0.02000
0.29523 4.43193 0.02000
-0.43981 4.27319 0.11128
-0.42381 5.01956 0.15571
0.20801 4.31013 0.03600
0.35985 4.70770 0.02000
-0.14581 4.86800 0.08149
-0.43981 4.97705 0.10748
-0.32913 4.50681 0.03600
0.31807 4.62393 0.02000
0.16419 4.21545 0.04457
0.14486 4.75720 0.05578
0.45819 4.30196 0.15222
-0.10497 4.27837 0.03600
-0.15857 4.46320 0.18177
0.33305 4.28881 0.02000
0.09187 4.46320 0.06597
0.13061 4.29239 0.03600
0.45819 4.29374 0.17895
0.09455 4.15320 0.07276
-0.14581 4.70519 0.07487
0.06167 5.05120 0.08550
-0.12981 4.95378 0.04040
0.05111 4.44720 0.16851
0.07932 4.65176 0.03600
0.43573 4.68114 0.03600
0.43805 4.79325 0.03600
0.25215 4.90576 0.03600
0.14819 4.82149 0.17909
-0.24457 4.19361 0.03600
0.14819 4.51755 0.08417
-0.16160 4.55402 0.03600
-0.25315 4.50381 0.03600
0.04303 4.46765 0.02000
0.44219 4.87525 0.10837
-0.43981 4.51914 0.05885
-0.10653 4.92682 0.02000
0.17047 4.86054 0.03600
0.14819 4.60039 0.15540
-0.28314 5.05120 0.05274
0.20956 5.05120 0.18143
-0.40025 4.95531 0.02000
-0.12981 4.27346 0.12612
0.44219 4.68858 0.18305
-0.22565 4.16920 0.12917
-0.43409 4.73909 0.02000
-0.17251 4.72950 0.03600
0.44219 4.19251 0.18558
-0.12981 4.78797 0.14453
0.29767 4.58210 0.02000
0.16419 4.25610 0.14514
0.45819 4.77916 0.03385
0.04006 4.71131 0.02000
-0.43981 4.79381 0.09337
-0.42381 5.03167 0.09618
-0.24267 4.74120 0.17682
-0.24976 4.48671 0.03600
-0.12981 4.46451 0.04157
-0.40398 4.44720 0.06093
-0.02957 4.21077 0.03600
0.44219 4.95267 0.10562
-0.01894 4.49613 0.02000
-0.02204 4.22177 0.03600
0.09423 4.73734 0.02000
0.43503 4.65228 0.03600
0.10671 4.92659 0.03600
0.22442 4.15320 0.03911
0.45819 4.86818 0.06758
-0.12981 4.91171 0.05858
0.02515 4.35930 0.03600
-0.09754 4.21400 0.02000
0.14819 4.63194 0.05840
0.35463 4.53342 0.03600
0.14819 4.58472 0.12204
-0.14581 4.67721 0.04466
-0.27012 4.75720 0.10293
0.45819 4.29877 0.03875
-0.39671 4.39532 0.02000
0.16419 4.96279 0.05071
-0.12981 4.70197 0.07652
-0.37074 4.28424 0.03600
-0.16306 4.62705 0.03600
0.44042 4.75720 0.04525
0.04157 4.56614 0.02000
-0.40798 4.68113 0.02000
0.45819 4.48254 0.11133
0.09568 4.15320 0.08253
-0.16231 4.94446 0.02000
0.22796 4.19860 0.02000
-0.41408 4.77335 0.03600
0.17780 4.50281 0.02000
-0.17439 4.22095 0.02000
0.43396 4.98913 0.02000
-0.09331 4.15320 0.12915
0.05771 4.71852 0.03600
-0.18804 4.43054 0.02000
0.45819 4.64025 0.09037
-0.12981 4.78995 0.14284
0.13608 4.43851 0.02000
0.28130 4.60909 0.03600
0.14819 4.22623 0.04042
-0.09192 5.05120 0.05189
0.24835 4.84270 0.02000
-0.42381 4.18258 0.17700
0.10471 4.74120 0.13756
-0.38634 4.46320 0.07583
0.01016 5.05120 0.04834
-0.07718 4.54678 0.02000
0.44219 4.20545 0.11573
0.00150 4.15320 0.13662
-0.42749 4.58122 0.02000
-0.07343 4.57887 0.02000
-0.43981 4.55957 0.12303
0.44219 4.68167 0.04353
0.12406 4.32247 0.02000
0.22457 4.99835 0.02000
0.01926 4.33023 0.02000
-0.18240 4.16920 0.05915
-0.12981 5.00341 0.05118
-0.26691 4.89523 0.02000
0.40552 5.03520 0.11608
-0.15724 4.15320 0.11776
-0.27876 4.72985 0.03600
0.44219 4.29615 0.16380
0.18000 4.73217 0.03600
-0.40259 4.56988 0.03600
0.44219 4.52609 0.15371
-0.17924 4.61742 0.03600
0.16203 4.63706 0.02000
-0.35794 4.83417 0.02000
-0.03912 5.05120 0.16079
-0.13101 4.53255 0.18600
0.08716 5.03520 0.15219
-0.40249 4.64543 0.03600
0.16419 4.68002 0.07118
-0.12981 4.64101 0.07835
-0.01098 4.69751 0.02000
0.27085 4.33736 0.03600
0.35882 4.68923 0.02000
0.22717 4.44720 0.10070
-0.12981 4.18271 0.05857
0.33061 4.60049 0.03600
-0.14581 4.24905 0.13397
0.45421 4.64494 0.02000
-0.37926 4.45888 0.18600
-0.11552 5.05120 0.05042
0.09204 4.93121 0.02000
0.04522 5.00951 0.02000
0.44219 4.32510 0.17513
-0.12981 4.19456 0.12508
0.14045 4.71671 0.03600
0.45819 4.78509 0.02285
0.34927 5.05120 0.06145
0.44219 4.56710 0.11748
-0.26502 4.35910 0.02000
0.00053 5.01045 0.02000
-0.13543 4.15320 0.17799
-0.13537 4.45675 0.02000
-0.39653 4.44720 0.07935
0.40704 4.95435 0.03600
0.45819 4.41868 0.04293
-0.14581 4.18493 0.09713
-0.10360 5.03520 0.05158
0.44219 4.92719 0.08329
0.44219 4.48983 0.10341
0.10380 4.46320 0.03613
0.00921 4.16920 0.12080
-0.40321 5.03520 0.07219
-0.35187 4.66115 0.02000
0.14819 4.67525 0.07417
-0.26368 4.16920 0.08478
-0.05886 4.88330 0.02000
-0.16399 4.44720 0.15538
0.35211 4.97523 0.03600
-0.43981 4.67596 0.12266
-0.31062 4.74120 0.07109
0.19383 4.48200 0.02000
-0.06734 4.77738 0.02000
0.36997 4.62776 0.03600
-0.12981 4.90250 0.12077
0.45439 4.59001 0.18600
0.45819 4.49059 0.08308
0.31957 4.75720 0.06201
-0.42381 4.48268 0.05540
0.37589 4.51838 0.03600
0.00012 4.33416 0.03600
0.09027 4.98031 0.02000
-0.24465 4.16920 0.12668
0.22181 4.75720 0.11036
-0.09414 4.16920 0.17184
0.12848 4.63910 0.02000
0.45819 4.36315 0.02199
-0.14581 4.27040 0.14580
0.16419 4.44620 0.14974
-0.43981 4.74578 0.11144
0.14819 4.94200 0.14770
-0.19911 4.30742 0.03600
0.32824 4.42150 0.02000
0.31097 4.57913 0.03600
0.00927 5.03520 0.03633
0.21855 4.23675 0.02000
-0.41860 4.16920 0.16026
0.24300 4.75720 0.04097
0.03322 4.20695 0.03600
-0.08450 4.90265 0.02000
0.22644 4.52001 0.03600
0.23157 4.39686 0.02000
-0.27377 5.02500 0.02000
-0.16332 4.68014 0.02000
-0.18813 4.63198 0.02000
-0.40111 4.56711 0.02000
-0.01997 4.39371 0.03600
-0.17018 4.19524 0.02000
0.13742 5.01390 0.03600
0.43869 4.33483 0.02000
-0.28285 4.43549 0.02000
-0.26019 4.46320 0.12009
-0.22393 5.03520 0.07023
0.44219 4.28999 0.12768
0.00100 5.03520 0.14333
-0.43981 4.83879 0.12377
-0.42381 4.99642 0.06567
-0.01919 4.16920 0.16129
-0.34254 4.59129 0.03600
-0.40206 4.38765 0.03600
0.16419 4.20494 0.04694
-0.39703 4.74120 0.12596
0.05212 4.20912 0.03600
-0.34774 4.44720 0.11290
0.14819 4.97997 0.18053
-0.26012 4.74120 0.17042
-0.37978 4.44720 0.03921
0.17587 4.79654 0.03600
0.14819 4.69653 0.13740
0.06956 4.45585 0.18600
0.35223 5.02395 0.03600
-0.43580 4.39333 0.18600
-0.43981 4.73375 0.15785
0.39764 4.69728 0.02000
-0.31426 4.46320 0.14435
-0.36895 4.26600 0.03600
0.16419 4.20227 0.10191
-0.42381 4.77713 0.07662
0.19095 4.46254 0.18600
-0.04613 4.57894 0.02000
-0.14581 4.88826 0.03670
-0.27880 4.91626 0.03600
-0.21981 4.44720 0.11254
0.24412 4.82734 0.02000
0.44913 4.26391 0.18600
-0.10842 4.74120 0.10855
-0.15442 4.55503 0.03600
-0.27667 4.15320 0.03066
0.21368 4.44720 0.16413
-0.42381 4.90170 0.18035
-0.37692 4.66412 0.02000
-0.31688 4.66670 0.02000
0.38866 4.87867 0.02000
0.33423 4.85628 0.03600
-0.31835 5.05120 0.17504
0.14819 4.33837 0.18048
0.44219 4.33994 0.12478
-0.35226 4.21530 0.02000
-0.35565 4.41059 0.02000
0.27790 4.15320 0.08199
-0.42381 4.41552 0.07343
-0.02524 4.97571 0.02000
0.16605 4.55614 0.03600
0.04944 4.15320 0.03476
0.45819 4.20739 0.14823
-0.41123 4.15320 0.18433
-0.08175 4.59160 0.02000
0.16419 4.66972 0.13908
0.24708 4.99844 0.02000
-0.14581 4.38022 0.08862
0.12453 4.22675 0.03600
0.41760 5.03520 0.12856
-0.42432 5.01612 0.02000
0.30896 4.16920 0.18205
0.14819 4.78263 0.08147
0.45819 4.22429 0.08822
-0.39711 5.05120 0.09165
-0.16370 4.44720 0.11493
-0.16517 4.74120 0.05623
-0.30905 4.81943 0.03600
-0.00952 4.15320 0.11300
-0.37278 4.44720 0.16499
0.33459 5.03520 0.08875
0.24601 5.03520 0.05877
-0.14581 4.90066 0.14007
-0.43981 5.00647 0.16993
0.08828 4.22445 0.03600
0.13436 4.28629 0.03600
-0.26491 4.15320 0.06586
0.18383 4.61104 0.02000
0.02204 4.16920 0.10744
0.42122 5.03520 0.10184
0.44219 4.53491 0.09525
-0.36737 5.03520 0.09354
0.16419 4.44625 0.10195
0.23837 4.30440 0.02000
-0.09917 4.84596 0.02000
0.19273 4.88614 0.03600
-0.43981 4.91095 0.13808
-0.22719 5.03520 0.12506
0.44996 4.27097 0.18600
-0.32945 4.46320 0.08964
0.14819 4.77251 0.03909
0.22317 4.23068 0.03600
0.29870 4.89387 0.03600
0.43324 4.90013 0.18600
0.19715 4.80578 0.18600
0.36038 4.75720 0.15492
0.19487 5.01814 0.03600
0.31291 4.75720 0.13052
0.17011 5.03220 0.17193
0.16419 4.83980 0.14148
0.16466 4.80952 0.18600
0.43919 4.93755 0.16210
0.43919 4.81462 0.05421
0.34646 4.89251 0.03600
0.20183 4.75720 0.14978
0.40169 4.75720 0.11867
0.20521 5.03090 0.18600
0.33705 4.79468 0.03600
0.28774 5.03220 0.10039
0.16419 4.93972 0.15778
0.16419 4.98477 0.11714
0.37554 5.03220 0.06140
0.37055 5.02333 0.03600
0.33115 4.93207 0.03600
0.25214 4.89615 0.03600
0.16419 4.80529 0.15606
0.43919 5.02493 0.06039
0.42479 4.98783 0.03600
0.19228 5.03220 0.16494
0.42874 4.91927 0.03600
0.43919 4.91091 0.14632
0.17809 4.91290 0.03600
0.19362 4.93821 0.03600
0.40302 4.75720 0.10781
0.16419 4.92476 0.03858
0.24222 5.03220 0.04564
0.43034 5.02343 0.03600
0.36437 4.97432 0.18600
0.16419 4.94817 0.08602
0.26891 4.81393 0.03600
0.17553 4.82523 0.03600
0.37089 5.03220 0.14919
0.16419 4.87515 0.07465
0.39649 4.88798 0.03600
0.35205 4.75720 0.13151
0.16419 4.82002 0.11904
0.29057 4.90624 0.03600
0.18912 5.02833 0.18600
0.33072 5.00520 0.03600
0.39086 4.96341 0.03600
0.16419 4.97394 0.16147
0.39489 4.75720 0.08963
0.17271 4.77979 0.03600
0.38467 4.81400 0.03600
0.35276 4.92280 0.18600
0.43919 5.02345 0.07027
0.43919 4.98016 0.17092
0.37823 4.87064 0.03600
0.43023 4.81633 0.18600
0.28775 4.83719 0.03600
0.43919 4.90533 0.15517
0.17385 4.80662 0.03600
0.27685 5.03220 0.04834
0.16478 5.03220 0.15894
0.33586 4.77723 0.18600
0.17780 4.86030 0.03600
0.40329 4.75752 0.03600
0.39783 4.85903 0.03600
0.34420 4.99179 0.18600
0.43919 4.81313 0.11114
0.32367 5.03220 0.11307
0.18318 4.94332 0.03600
0.27008 4.75720 0.12198
0.31291 4.96162 0.18600
0.41451 4.78988 0.03600
0.28966 4.98079 0.18600
0.19204 4.77541 0.18600
0.20769 4.85350 0.03600
0.16419 4.96881 0.10006
0.39880 4.75720 0.13116
0.16419 4.98402 0.15886
0.22225 5.02230 0.03600
0.22398 4.98996 0.18600
0.16419 4.83790 0.09519
0.41554 4.75720 0.09653
0.28300 5.03220 0.06209
0.22465 4.86703 0.18600
0.40165 5.03220 0.18000
0.22876 4.93564 0.18600
0.43919 4.86501 0.14765
0.39537 4.82582 0.03600
0.43586 4.88970 0.18600
0.27270 4.99014 0.18600
0.16419 4.98569 0.15302
0.20773 5.02662 0.18600
0.16664 4.98565 0.18600
0.26679 5.03220 0.16638
0.42910 4.75720 0.12366
0.23790 4.79877 0.03600
0.19251 4.97917 0.03600
0.32702 4.87064 0.18600
0.40561 5.03220 0.09225
0.31607 4.82890 0.18600
0.17723 4.78402 0.03600
0.28998 4.91519 0.18600
0.38644 4.75720 0.09383
0.29173 4.87243 0.03600
0.21865 5.03220 0.06002
0.30224 4.75720 0.13274
0.34314 4.93015 0.18600
0.28046 4.99684 0.18600
0.20416 4.95265 0.18600
0.23049 4.75982 0.03600
0.16419 4.83417 0.10424
0.40491 4.75720 0.17859
0.26541 4.81666 0.18600
0.36678 5.02041 0.18600
0.33119 5.03076 0.18600
0.28264 4.99393 0.03600
0.39881 5.00160 0.03600
0.43919 4.89824 0.14652
0.32848 4.75720 0.09099
0.18803 4.78336 0.18600
0.16419 4.96883 0.15688
0.27703 5.02201 0.03600
0.16915 4.89237 0.03600
0.17793 4.92729 0.18600
0.16707 4.88750 0.18600
0.41910 4.75720 0.16354
0.43919 4.76928 0.15936
0.39288 4.75720 0.15669
0.24110 4.97697 0.03600
0.23881 4.81546 0.18600
0.27820 4.84427 0.18600
0.27471 4.75720 0.04268
0.30779 4.93935 0.18600
0.33322 4.91323 0.03600
0.16472 5.03220 0.13921
0.26365 4.93944 0.03600
0.16419 4.85279 0.11363
0.43919 4.96912 0.05260
0.36420 5.03220 0.11246
0.19939 5.03220 0.13923
0.24702 4.96828 0.03600
0.16419 4.84568 0.12175
0.39519 5.00662 0.18600
0.16419 4.95520 0.16892
0.16419 4.79138 0.15669
0.16419 4.99506 0.17353
0.31264 5.03220 0.03641
0.28265 4.86947 0.03600
0.21518 4.84129 0.03600
0.26600 4.97842 0.03600
0.16419 4.85699 0.07413
0.36512 5.03220 0.13831
0.23818 5.01429 0.18600
0.16419 4.84679 0.06148
0.43919 4.92208 0.08417
0.37887 5.03065 0.03600
0.18678 4.83992 0.18600
0.43919 4.82749 0.12687
0.19983 4.75720 0.11121
0.34033 4.80094 0.03600
0.20999 5.03220 0.08165
0.23133 4.83125 0.03600
0.33052 4.75720 0.16087
0.28040 4.75720 0.18478
0.34222 5.03220 0.14850
0.43919 4.75860 0.09065
0.30761 4.97629 0.18600
0.43231 4.92785 0.03600
0.20484 4.88764 0.18600
0.30710 4.77428 0.18600
0.39916 4.95193 0.03600
0.27957 4.99053 0.03600
0.39381 4.92192 0.03600
0.42951 4.81275 0.03600
0.16419 4.94854 0.13217
0.19473 4.90931 0.03600
0.23870 5.03220 0.11470
0.35089 4.75720 0.10234
0.35452 4.92402 0.03600
0.25505 4.93710 0.18600
0.25103 4.83974 0.18600
0.35062 4.82127 0.18600
0.16419 4.87630 0.08741
0.31512 5.03220 0.18097
0.43919 4.81988 0.11454
0.16419 4.95271 0.15160
0.25115 4.84283 0.18600
0.25758 5.03220 0.11748
0.31094 4.90046 0.03600
0.16419 4.77903 0.05090
0.17561 4.88427 0.03600
0.29912 4.79867 0.03600
0.21599 4.75720 0.08452
0.33379 4.96910 0.03600
0.40846 4.79917 0.03600
0.40723 5.01362 0.18600
0.29561 4.75720 0.17602
0.22301 4.92200 0.18600
0.31816 4.75720 0.05970
0.16419 4.79037 0.06365
0.27875 4.86314 0.03600
0.16419 4.87331 0.05889
0.40893 4.82854 0.18600
0.26040 4.92335 0.18600
0.31586 4.95950 0.18600
0.43919 4.90810 0.06946
0.20627 4.76788 0.18600
0.22844 4.77716 0.18600
0.17224 4.96004 0.03600
0.32917 5.03220 0.05023
0.34013 4.77105 0.18600
0.43919 4.85760 0.12640
0.29585 4.75720 0.08922
0.18348 5.03220 0.15447
0.26772 4.95393 0.03600
0.21933 4.86201 0.03600
0.43607 4.83275 0.18600
0.18456 4.76082 0.03600
0.32717 4.90931 0.03600
0.43182 4.76933 0.18600
0.38864 4.75736 0.18600
0.16419 4.95265 0.11276
0.43919 4.90454 0.09499
0.17821 4.75720 0.04291
0.43919 4.93180 0.08734
0.16908 4.79864 0.18600
0.28078 4.79551 0.03600
0.27132 4.75720 0.05482
0.42344 4.75720 0.18121
0.42877 4.83101 0.03600
0.39996 5.03220 0.03768
0.39690 5.03220 0.13111
0.31795 4.99715 0.03600
0.36830 4.75720 0.11133
0.17808 4.91790 0.18600
0.43884 5.03211 0.18600
0.43919 4.91307 0.14172
0.43919 4.82457 0.17220
0.16419 4.78165 0.10999
0.37754 4.75720 0.18187
0.24479 4.75720 0.07891
0.43919 4.86833 0.13960
0.38802 4.75720 0.07361
0.43919 4.98917 0.16978
0.38121 5.03220 0.07206
0.16419 4.97616 0.08401
0.22903 5.03220 0.05778
0.33065 4.84865 0.18600
0.17041 4.87051 0.18600
0.43919 4.82139 0.03702
0.19639 4.90566 0.18600
0.17519 4.79762 0.03600
0.40081 4.92661 0.03600
0.25902 4.86356 0.03600
0.16419 4.96506 0.09910
0.16419 4.81393 0.10439
0.16419 4.82409 0.03900
0.43919 4.84069 0.13075
0.16419 4.92739 0.09825
0.25951 4.79903 0.18600
0.35573 4.75720 0.09473
0.43919 4.75737 0.09162
0.24359 5.03220 0.10473
0.41526 4.99207 0.18600
0.43028 5.02317 0.18600
0.28292 4.80806 0.18600
0.35396 4.90691 0.18600
0.19144 4.96996 0.18600
0.21055 4.95209 0.18600
0.22378 4.82663 0.18600
0.19405 4.92602 0.03600
0.26412 4.94925 0.03600
0.35402 5.00825 0.03600
0.20723 4.78948 0.18600
0.43919 5.02835 0.18325
0.28465 4.95010 0.18600
0.33805 5.03220 0.05531
0.43919 4.95292 0.16734
0.43919 4.93133 0.10393
0.26160 5.00871 0.18600
0.24805 4.99677 0.18600
0.40030 4.75720 0.06538
0.43919 4.91144 0.09419
0.43919 4.98228 0.07884
0.18042 5.03220 0.09481
0.20579 4.95211 0.03600
0.30765 4.80818 0.03600
0.43091 4.77222 0.03600
0.40982 4.75720 0.04392
0.36214 4.75720 0.13067
0.40853 5.03220 0.13617
0.21923 4.75720 0.10565
0.17841 5.03220 0.12753
0.16419 4.89247 0.12728
0.32850 4.85382 0.03600
0.33352 4.83799 0.03600
0.35623 4.91441 0.18600
0.16670 4.75720 0.17014
0.16419 4.89551 0.15644
0.33894 4.81114 0.18600
0.28492 4.86926 0.18600
0.34391 5.03220 0.06536
0.19668 5.03220 0.05200
0.34008 4.76172 0.03600
0.18788 4.86139 0.18600
0.16419 4.92169 0.12700
0.40951 4.80570 0.18600
0.25631 4.77589 0.03600
0.18196 5.03220 0.10310
0.29812 4.98842 0.18600
0.20308 4.88525 0.03600
0.32944 5.03220 0.10970
0.16419 4.89953 0.15004
0.37804 5.03220 0.06108
0.43919 4.79621 0.15463
0.21997 5.03220 0.09174
0.43919 4.97065 0.03757
0.43354 4.88917 0.03600
0.43919 4.90649 0.03668
0.34399 5.03220 0.03727
0.16419 4.86473 0.14004
0.42512 4.99094 0.18600
0.25501 5.03220 0.14283
0.16419 4.94648 0.18013
0.16419 4.99307 0.05035
0.22379 4.77724 0.03600
0.32550 5.03220 0.05235
0.27290 5.03220 0.13188
0.33986 4.92232 0.03600
0.24440 4.90239 0.18600
0.27822 4.75720 0.04942
0.43919 4.98994 0.10680
0.26807 4.81694 0.03600
0.31372 5.03220 0.13058
0.17464 5.03220 0.10412
0.42204 4.75720 0.05351
0.43919 4.94432 0.09889
0.16419 4.97013 0.10789
0.18844 5.03220 0.15994
0.41484 5.03220 0.16895
0.28052 4.80061 0.03600
0.42264 4.94238 0.03600
0.38356 4.97328 0.03600
0.16419 5.01033 0.09720
0.22101 4.82777 0.03600
0.43919 4.83833 0.18525
0.29915 4.75720 0.13851
0.39842 4.85292 0.18600
0.38893 5.03220 0.15258
0.16419 4.89830 0.09332
0.38416 5.03220 0.17460
0.20753 5.03220 0.10526
0.43919 4.79477 0.05141
0.24381 4.99930 0.18600
0.16419 4.97371 0.07273
0.34172 4.89271 0.18600
0.16419 4.89442 0.15322
0.16419 5.01492 0.17851
0.18824 5.03220 0.14599
0.36990 4.75720 0.06832
0.32427 4.84498 0.18600
0.41284 5.03220 0.12557
0.29801 4.91234 0.03600
0.16419 4.76452 0.07244
0.39674 4.96629 0.03600
0.34449 4.98177 0.18600
0.16419 4.76830 0.04663
0.34181 4.79618 0.18600
0.16532 4.82891 0.03600
0.27133 4.75720 0.18022
0.23612 5.03220 0.04231
0.32237 4.75720 0.12803
0.20459 4.86734 0.03600
0.27256 5.00784 0.03600
0.43919 4.89995 0.13378
0.39699 4.97394 0.18600
0.22234 5.00409 0.03600
0.42515 5.03220 0.15596
0.24999 5.03220 0.15423
0.16419 4.94201 0.16329
0.36843 4.75720 0.08912
0.16419 4.81442 0.04974
0.24857 4.75720 0.08832
0.40101 5.03029 0.03600
0.16419 4.81001 0.06474
0.24038 5.03220 0.08302
0.26711 4.78670 0.03600
0.18399 4.75720 0.13794
0.27243 5.00473 0.18600
0.19684 5.03220 0.17318
0.17168 4.95467 0.18600
0.16419 5.02959 0.07965
0.20414 4.87156 0.18600
0.25797 4.85658 0.03600
0.38082 5.03220 0.11662
0.23073 5.03220 0.15569
0.32296 4.75720 0.15752
0.40543 4.85748 0.18600
0.31269 4.84685 0.03600
0.43919 5.00550 0.07601
0.38683 5.03220 0.04710
0.28919 4.91800 0.18600
0.43919 4.91466 0.04060
0.22063 5.03220 0.07208
0.16419 4.97877 0.07478
0.39476 4.89641 0.03600
0.19716 4.75752 0.03600
0.43919 4.81023 0.14778
0.24637 4.75720 0.04861
0.43299 5.03220 0.12697
0.43919 4.99295 0.17739
0.28719 5.02919 0.18600
0.36339 4.90931 0.03600
0.27236 5.03220 0.08179
0.35552 4.91693 0.18600
0.39919 4.84882 0.18600
0.32070 5.00483 0.18600
0.40424 4.82949 0.18600
0.33000 4.90892 0.03600
0.43919 4.90280 0.07398
0.19866 4.94872 0.18600
0.17574 4.90457 0.18600
0.18489 4.89531 0.18600
0.38505 4.99921 0.03600
0.43919 4.94223 0.04794
0.28511 5.02391 0.03600
0.16419 4.85093 0.05795
0.33267 4.79555 0.18600
0.43919 4.81726 0.15608
0.32384 4.94468 0.18600
0.43919 4.97361 0.13410
0.41405 4.98536 0.03600
0.40278 4.82128 0.18600
0.16419 4.91980 0.12752
0.19656 4.89795 0.18600
0.36519 4.75720 0.15795
0.42283 5.03220 0.08517
0.16884 4.88214 0.18600
0.16419 4.79137 0.14992
0.35534 4.95020 0.03600
0.27430 4.94298 0.18600
0.22198 4.95455 0.03600
0.33542 5.03220 0.11405
0.34896 4.97469 0.03600
0.21233 5.03220 0.15570
0.40524 4.88382 0.18600
0.42040 4.99563 0.18600
0.43919 4.76613 0.07988
0.35028 4.92549 0.18600
0.43919 5.02459 0.16171
0.32311 4.94008 0.03600
0.37981 4.84697 0.03600
0.16419 4.83249 0.14315
0.39906 4.85033 0.18600
0.16419 4.96374 0.15215
0.29519 5.03220 0.13248
0.17638 4.75720 0.17757
0.16419 4.90337 0.06045
0.42093 4.75720 0.05007
0.25984 4.78328 0.03600
0.43919 4.92467 0.03915
0.19120 5.03220 0.16443
0.19485 4.91682 0.03600
0.37743 4.94781 0.18600
0.19815 5.03220 0.04603
0.43919 4.81205 0.05026
0.43919 4.97368 0.09849
0.23685 5.03220 0.17408
0.29507 4.80314 0.18600
0.18534 4.96815 0.18600
0.20492 4.92677 0.18600
0.30940 5.01768 0.18600
0.18501 4.75720 0.09413
0.42754 4.75720 0.13520
0.29648 4.87133 0.18600
0.31106 5.03220 0.03953
0.22299 4.90998 0.18600
0.32673 5.01319 0.03600
0.32720 5.03220 0.13410
0.21032 5.03220 0.06936
0.16419 5.02157 0.17099
0.16419 4.89857 0.10433
0.43431 5.03220 0.14164
0.16419 4.81020 0.10306
0.43919 4.75748 0.06354
0.31291 5.03186 0.03600
0.43919 4.99047 0.17630
0.23160 4.79033 0.18600
0.30763 4.75720 0.05644
0.16419 4.87012 0.15817
0.29336 4.87149 0.03600
0.36000 4.93334 0.18600
0.16419 4.89023 0.04976
0.31461 4.82003 0.18600
0.23409 4.79576 0.18600
0.36681 5.03220 0.13605
0.24460 4.75720 0.16668
0.37069 4.77128 0.03600
0.23597 4.98582 0.03600
0.27092 5.03220 0.05990
0.16651 4.75720 0.12488
0.21217 4.81279 0.03600
0.40095 5.03220 0.06697
0.43919 4.90898 0.09713
0.16419 4.83124 0.11601
0.16419 4.98255 0.06327
0.16419 4.84984 0.08409
0.27968 4.83321 0.18600
0.18659 4.75720 0.10498
0.30414 4.75720 0.16596
0.35598 4.89381 0.03600
0.21409 5.03220 0.09152
0.38715 5.02846 0.03600
0.40366 4.76182 0.03600
0.16951 4.81640 0.18600
0.21113 4.87078 0.18600
0.16419 4.97502 0.07701
0.29311 5.03220 0.05238
0.40409 4.75720 0.08161
0.28961 5.03220 0.08277
0.42575 4.79541 0.03600
0.24923 4.83973 0.03600
0.16419 4.91898 0.13824
0.26627 4.75720 0.13360
0.43919 4.97283 0.04633
0.43919 4.76877 0.15138
0.43919 4.82487 0.05888
0.40376 5.03220 0.07213
0.41802 4.97141 0.03600
0.43482 5.03220 0.18537
0.41913 4.75720 0.07190
0.31681 4.89086 0.03600
0.25225 4.92556 0.18600
0.41122 4.92029 0.18600
0.34232 4.75720 0.07564
0.42919 4.77540 0.03600
0.31056 4.75720 0.09607
0.31215 4.98459 0.18600
0.32584 5.03220 0.10547
0.43919 4.78193 0.06972
0.43919 4.88351 0.09347
0.19183 5.00872 0.03600
0.42388 5.03220 0.07665
0.43919 4.97180 0.17373
0.30061 4.81620 0.18600
0.24855 4.77935 0.18600
0.16419 4.84335 0.14553
0.26773 4.75720 0.06250
0.25691 5.03220 0.11462
0.30570 4.75720 0.06964
0.25090 4.99783 0.18600
0.28576 4.84447 0.03600
0.38564 5.03220 0.16902
0.41941 5.00978 0.18600
0.16419 4.98072 0.13532
0.23876 4.97042 0.03600
0.39808 4.86903 0.03600
0.30047 4.85238 0.18600
0.16419 4.80063 0.14701
0.33183 4.97983 0.18600
0.16809 4.85943 0.03600
0.17593 4.86295 0.03600
0.37354 4.75720 0.05521
0.28840 4.91381 0.18600
0.20899 5.03220 0.05314
0.41897 5.03220 0.05620
0.16419 4.77559 0.11201
0.42122 5.00358 0.18600
0.37303 4.84100 0.18600
0.20906 4.75720 0.12667
0.34492 5.03220 0.14429
0.21007 4.80081 0.18600
0.29026 4.75720 0.08359
0.21237 4.75720 0.10761
0.22554 4.93524 0.03600
0.42438 4.90350 0.03600
0.35613 4.75720 0.05096
0.22895 4.84812 0.18600
0.34876 4.93265 0.18600
0.16419 4.85263 0.04310
0.23072 4.80837 0.03600
0.32551 4.83392 0.03600
0.42464 4.82217 0.03600
0.31656 4.77462 0.18600
0.30864 4.96520 0.03600
0.16419 4.80189 0.10749
0.17651 4.75720 0.03977
0.23795 4.87624 0.03600
0.16419 4.80223 0.05477
0.41264 5.03220 0.17591
0.19050 5.01331 0.18600
0.21625 4.85535 0.18600
0.43611 4.75720 0.06087
0.16419 4.81237 0.10145
0.16419 4.84005 0.17948
0.16419 4.90351 0.07682
0.27207 5.00207 0.03600
0.16419 4.83303 0.12437
0.30819 5.03220 0.17990
0.35393 4.98404 0.03600
0.31929 5.03220 0.17824
0.33668 5.03220 0.05640
0.25157 4.96091 0.18600
0.30873 4.84954 0.18600
0.18231 4.82859 0.18600
0.36616 5.03220 0.08966
0.31916 4.80059 0.18600
0.16419 4.90338 0.06100
0.19774 4.91059 0.18600
0.23329 5.01464 0.18600
0.16419 4.77697 0.10062
0.33948 4.89381 0.03600
0.38337 4.83414 0.03600
0.43919 4.93915 0.17328
0.41914 4.75720 0.04600
0.25290 4.75720 0.10168
0.22998 4.97386 0.18600
0.43919 4.98631 0.03617
0.22972 5.01833 0.18600
0.32258 4.75720 0.17519
0.18920 5.00232 0.18600
0.26512 5.03220 0.12073
0.37657 5.03220 0.14319
0.43919 4.96398 0.14373
0.16731 4.89556 0.18600
0.16419 4.93607 0.04012
0.31497 4.91303 0.03600
0.34346 4.75720 0.17346
0.43919 4.94462 0.12771
0.33648 4.95870 0.18600
0.33892 4.91271 0.03600
0.34146 4.84187 0.18600
0.33695 4.85864 0.18600
0.35130 4.80592 0.18600
0.38191 4.99225 0.03600
0.19339 5.03220 0.15543
0.16419 4.81661 0.13520
0.28897 5.00797 0.18600
0.25884 4.82107 0.18600
0.43919 4.80416 0.10695
0.29774 4.75720 0.05001
0.26241 5.03220 0.08599
0.16419 4.87562 0.17229
0.43919 5.01542 0.16644
0.31689 4.80298 0.03600
0.32434 5.03220 0.16767
0.16419 4.84544 0.10323
0.38446 4.75720 0.13574
0.16419 4.80875 0.14470
0.21363 4.86272 0.18600
0.43919 5.01233 0.05205
0.40177 5.03220 0.07879
0.24201 4.86695 0.03600
0.42432 4.80638 0.18600
0.18010 4.75720 0.18247
0.20197 5.03220 0.06694
0.16419 4.81964 0.10143
0.43919 4.80238 0.14809
0.26251 4.75720 0.04168
0.20447 4.98717 0.18600
0.29969 4.78918 0.03600
0.33624 5.03220 0.08397
0.43919 4.77096 0.14284
0.43919 4.84572 0.06443
0.16419 4.95696 0.14815
0.43919 4.82637 0.04803
0.31019 4.84016 0.18600
0.31820 4.96543 0.18600
0.43919 4.78614 0.14940
0.36633 4.94176 0.03600
0.21055 4.91566 0.18600
0.36275 4.93987 0.03600
0.28047 4.95358 0.03600
0.39036 4.89060 0.03600
0.16419 4.90627 0.10142
0.16419 4.82205 0.04545
0.38965 5.03220 0.04541
0.16445 4.80869 0.18600
0.40817 4.75720 0.08853
0.43919 5.00242 0.06295
0.16419 4.78271 0.11942
0.16419 4.82498 0.12162
0.35666 5.01756 0.18600
0.16477 4.90915 0.03600
0.43919 4.77533 0.18221
0.31020 4.95045 0.03600
0.42828 4.75720 0.04867
0.38162 4.80765 0.03600
0.28515 4.95035 0.18600
0.43081 5.03220 0.06027
0.42485 4.94633 0.03600
0.16419 4.88949 0.08233
0.40249 4.93947 0.18600
0.18103 4.81678 0.18600
0.23846 4.75720 0.10677
0.21399 4.91344 0.18600
0.19898 4.93874 0.03600
0.27884 4.75720 0.11498
0.30738 4.77100 0.03600
0.16419 4.93900 0.11272
0.16419 4.76259 0.04643
0.34530 4.92761 0.03600
0.23432 4.75720 0.12565
0.17266 4.75720 0.11416
0.16419 4.92460 0.16018
0.37199 4.83427 0.18600
0.27705 4.97211 0.03600
0.43919 4.83389 0.16358
0.27371 5.03220 0.18418
0.28734 4.82437 0.18600
0.36517 4.75720 0.10756
0.16419 4.85952 0.15165
0.43186 4.93269 0.18600
0.39534 4.75720 0.06656
0.41284 4.75720 0.07771
0.43919 4.96755 0.14603
0.18464 4.75720 0.07826
0.20161 4.75942 0.18600
0.22449 4.94381 0.03600
0.26381 4.97312 0.18600
0.18309 4.75720 0.03740
0.28545 4.89786 0.03600
0.16419 4.84240 0.06806
0.34760 5.03220 0.05501
0.27202 5.03220 0.13994
0.30942 4.94587 0.03600
0.29316 5.03220 0.08751
0.34613 4.99932 0.18600
0.37682 4.84686 0.18600
0.27488 4.88053 0.03600
0.22094 5.03220 0.15166
0.42611 4.98735 0.18600
0.39953 5.02539 0.18600
0.35214 4.75720 0.17947
0.39920 4.82388 0.03600
0.43235 5.03220 0.09067
0.43919 4.93231 0.15612
0.40793 4.89294 0.18600
0.26972 4.79560 0.03600
0.40352 4.75720 0.05451
0.19730 4.89900 0.03600
0.30724 4.92892 0.03600
0.26923 4.91118 0.03600
0.42858 5.03220 0.16463
0.23349 4.76937 0.18600
0.35231 4.97003 0.18600
0.39683 5.03220 0.12187
0.16419 5.02222 0.08966
0.43919 4.87432 0.08869
0.43919 4.97276 0.09050
0.41414 4.87251 0.18600
0.38531 4.75720 0.12009
0.43919 4.90789 0.06229
0.41564 4.75720 0.12917
0.37479 5.01752 0.18600
0.28696 5.03220 0.04562
0.16419 5.00967 0.03822
0.43919 4.82146 0.17235
0.20002 4.75720 0.12020
0.20172 5.03220 0.18130
0.16419 4.90378 0.14203
0.43919 4.78481 0.04737
0.33296 4.86200 0.03600
0.43919 4.78625 0.15066
0.28633 4.85698 0.03600
0.16419 4.81020 0.12099
0.43919 4.91740 0.03604
0.35438 4.76723 0.03600
0.30887 4.85720 0.18600
0.30711 4.84983 0.03600
0.33664 4.83222 0.03600
0.43919 4.92962 0.07574
0.23165 4.78132 0.18600
0.26357 4.75815 0.03600
0.20089 5.03220 0.15579
0.40675 4.90107 0.03600
0.43919 4.92839 0.10831
0.16419 4.81701 0.04638
0.21215 5.03220 0.05013
0.41769 4.75720 0.08738
0.25889 4.96707 0.03600
0.22927 5.03036 0.03600
0.28582 4.96109 0.03600
0.26600 5.03220 0.17936
0.42115 4.82578 0.18600
0.43919 4.97601 0.10600
0.16419 4.95173 0.12367
0.20648 4.75720 0.11357
