# .PCD v0.7 - Point Cloud Data file format
VERSION 0.7
FIELDS x y z
SIZE 4 4 4
TYPE F F F
COUNT 1 1 1
WIDTH 1913
HEIGHT 1
VIEWPOINT 0 0 0 1 0 0 0
POINTS 1913
DATA ascii
-0.84534 3.27137 0.09600
-0.39091 2.53314 0.09600
-0.69742 2.00794 0.03084
-0.03010 3.47897 0.02000
-0.34903 2.25965 0.09267
-0.47467 3.30449 0.06284
-0.36860 2.04594 0.04674
-0.86781 1.91112 0.05500
-0.04381 3.43336 0.03795
-0.90581 2.17441 0.09408
-0.19947 3.05278 0.09296
-0.86781 2.29805 0.09546
-0.04381 3.06149 0.05653
-0.79611 3.05278 0.02475
-0.89683 3.17917 0.09600
-0.90581 1.84042 0.08292
-0.55444 1.79420 0.08646
-0.85147 2.29582 0.09600
-0.26944 3.03155 0.02000
-0.33008 1.77881 0.09600
-0.00581 2.41211 0.07976
-0.76690 3.26649 0.02620
-0.90581 2.02739 0.06625
-0.79738 2.51136 0.09231
-0.04381 3.22401 0.03716
-0.20872 2.00794 0.07990
-0.03579 3.37246 0.02000
-0.89965 1.94955 0.09600
-0.30435 2.76863 0.09600
-0.01097 1.80568 0.09600
-0.77901 2.51136 0.04517
-0.09052 3.55620 0.03375
-0.90581 2.95068 0.06018
-0.59647 2.26845 0.09600
-0.03416 1.76158 0.02000
-0.82930 2.03202 0.02000
-0.88815 2.48403 0.02000
-0.04381 2.42481 0.06702
-0.34357 2.03901 0.02000
-0.82174 1.75969 0.02000
-0.86781 3.20244 0.02123
-0.04381 2.71936 0.07497
-0.90245 2.72288 0.02000
-0.04381 2.97595 0.03107
-0.44589 3.30449 0.08881
-0.71141 2.51136 0.03378
-0.25847 3.51820 0.08902
-0.76178 3.51820 0.02185
-0.00581 3.14726 0.02971
-0.01994 2.26902 0.02000
-0.90182 2.48055 0.09600
-0.89922 2.59975 0.09600
-0.20535 2.02468 0.02000
-0.70991 2.29765 0.08742
-0.04381 2.93097 0.02489
-0.07025 2.80107 0.08341
-0.04048 2.40514 0.02000
-0.79783 3.30449 0.03500
-0.62297 1.75620 0.04219
-0.14195 2.76307 0.09147
-0.88414 3.26459 0.02000
-0.04624 1.79420 0.09161
-0.04353 2.06786 0.02000
-0.37334 2.04594 0.09074
-0.60099 3.27695 0.09600
-0.90581 2.94501 0.03016
-0.49218 2.02864 0.02000
-0.69598 3.03138 0.02000
-0.18057 2.53576 0.09600
-0.51874 2.25965 0.02276
-0.26237 3.30449 0.08919
-0.90581 2.06045 0.07158
-0.02895 2.15534 0.09600
-0.39892 3.53667 0.09600
-0.04864 2.51136 0.06819
-0.50458 2.51328 0.02000
-0.79089 2.54936 0.05611
-0.00581 1.90288 0.07768
-0.00581 2.96742 0.03527
-0.40114 2.54936 0.07008
-0.62748 2.76307 0.05539
-0.65306 2.25965 0.03109
-0.04381 2.47777 0.04572
-0.62763 2.29389 0.02000
-0.74446 2.25965 0.05813
-0.88001 3.45055 0.02000
-0.90581 2.24787 0.05350
-0.49186 3.30449 0.07635
-0.38800 2.76307 0.03717
-0.90581 2.94706 0.08648
-0.69982 2.03312 0.09600
-0.17908 1.75620 0.02641
-0.32027 2.27265 0.09600
-0.03037 1.80058 0.02000
-0.00581 3.44054 0.04188
-0.23238 3.26649 0.05959
-0.18193 3.26831 0.09600
-0.30610 1.75620 0.07361
-0.67984 2.54936 0.06992
-0.89635 2.25078 0.09600
-0.19385 3.55620 0.03446
-0.86781 2.35917 0.09384
-0.44743 2.29765 0.07599
-0.85448 3.55044 0.09600
-0.88725 2.04327 0.09600
-0.63826 3.55620 0.03536
-0.87616 3.05896 0.09600
-0.01328 1.75620 0.09126
-0.29751 2.04594 0.03263
-0.00581 2.23904 0.07391
-0.57640 3.51820 0.09350
-0.87819 3.15481 0.09600
-0.90581 3.43900 0.03502
-0.00581 3.00472 0.04399
-0.20017 2.51136 0.08207
-0.61288 3.05278 0.09542
-0.04381 3.44189 0.08958
-0.04381 3.22653 0.03535
-0.55517 2.80107 0.06463
-0.24895 3.05278 0.07639
-0.41994 3.54685 0.09600
-0.16164 2.04594 0.03330
-0.31506 3.55620 0.07656
-0.43454 3.26649 0.07264
-0.71815 1.75620 0.05405
-0.90581 2.47003 0.07609
-0.78091 3.54121 0.09600
-0.12188 3.55620 0.05673
-0.03725 1.83440 0.02000
-0.01361 2.68286 0.02000
-0.74302 3.29539 0.02000
-0.47730 2.25965 0.08258
-0.04381 1.97162 0.07632
-0.41676 2.76307 0.05723
-0.59300 1.75620 0.08105
-0.70720 2.51861 0.02000
-0.76400 1.76025 0.09600
-0.28433 2.51136 0.09189
-0.89179 3.07261 0.09600
-0.04381 2.18149 0.05288
-0.28494 2.80107 0.02226
-0.45599 2.76307 0.06457
-0.80681 2.00794 0.04441
-0.39362 3.26649 0.03488
-0.89089 2.17511 0.09600
-0.90581 2.57276 0.04052
-0.00581 3.44324 0.02582
-0.88010 2.48027 0.09600
-0.10550 2.54936 0.03345
-0.04381 2.87502 0.06078
-0.45415 3.51820 0.08120
-0.46125 2.76307 0.04327
-0.33910 3.29675 0.09600
-0.00581 2.46076 0.04821
-0.72997 2.76307 0.03832
-0.86689 2.52330 0.09600
-0.44270 3.05278 0.04847
-0.00581 3.36969 0.09369
-0.81236 3.01478 0.08910
-0.00581 2.65525 0.09094
-0.30703 3.55620 0.08664
-0.86781 2.13383 0.02240
-0.24225 2.25965 0.07205
-0.52209 2.51136 0.02787
-0.02486 1.85821 0.09600
-0.70196 2.27118 0.09600
-0.32117 3.04214 0.02000
-0.62582 2.04594 0.04465
-0.66123 3.02823 0.02000
-0.51655 3.01478 0.09521
-0.03876 3.06095 0.02000
-0.00581 3.34741 0.02770
-0.28844 2.25965 0.03513
-0.00581 2.06395 0.09503
-0.24274 2.53611 0.09600
-0.48396 2.53555 0.02000
-0.32000 3.05278 0.07849
-0.12410 2.29765 0.07546
-0.70719 3.55620 0.08649
-0.69633 2.76307 0.08798
-0.02568 2.20478 0.09600
-0.62707 3.28420 0.02000
-0.70204 2.00794 0.04660
-0.03634 2.61294 0.09600
-0.04381 3.47856 0.05791
-0.81070 3.01478 0.08107
-0.18613 2.02880 0.02000
-0.56852 3.05278 0.06298
-0.37896 2.00794 0.05427
-0.04381 3.37645 0.02332
-0.28635 2.04594 0.08048
-0.20185 2.04510 0.02000
-0.04381 3.32196 0.06227
-0.10043 2.29765 0.03963
-0.42329 3.01478 0.08957
-0.90581 2.91354 0.06093
-0.90581 3.00619 0.03579
-0.38108 3.54626 0.09600
-0.57310 2.28149 0.02000
-0.86530 3.28906 0.02000
-0.53188 2.25965 0.04608
-0.86781 1.99178 0.08155
-0.29885 2.04594 0.02579
-0.00581 3.01609 0.06429
-0.10872 3.55307 0.09600
-0.39437 2.00794 0.08673
-0.25448 1.79200 0.02000
-0.69482 3.55620 0.04936
-0.19598 3.55620 0.06187
-0.19790 2.54702 0.09600
-0.48293 2.54652 0.09600
-0.65457 3.05256 0.09600
-0.21132 2.25965 0.02779
-0.01270 3.41183 0.09600
-0.06466 3.30449 0.03400
-0.63374 2.04594 0.03860
-0.86781 2.18150 0.06335
-0.87408 2.85797 0.09600
-0.49135 3.55620 0.03380
-0.58743 3.01478 0.07702
-0.66581 2.76307 0.03855
-0.13396 3.55620 0.03634
-0.70461 2.80107 0.05543
-0.67695 3.04059 0.09600
-0.12370 3.51820 0.07454
-0.02404 2.00722 0.09600
-0.90581 2.37411 0.09005
-0.71215 1.75620 0.06891
-0.56638 2.04594 0.06073
-0.04381 1.82133 0.04107
-0.37800 3.51820 0.09409
-0.65170 2.25965 0.08474
-0.55994 3.52607 0.09600
-0.27897 3.51820 0.02202
-0.11383 3.54132 0.02000
-0.00581 3.28930 0.07837
-0.15950 3.05278 0.07337
-0.86781 2.07680 0.08872
-0.02214 3.33045 0.09600
-0.40730 2.29765 0.03190
-0.85505 2.80107 0.05913
-0.86781 1.88701 0.02562
-0.39287 3.51820 0.04191
-0.86103 3.51820 0.02677
-0.35731 2.80107 0.08362
-0.87640 2.95720 0.02000
-0.40334 2.80107 0.03889
-0.86781 3.24710 0.05511
-0.69523 1.78402 0.02000
-0.02416 2.32210 0.02000
-0.88411 2.81211 0.09600
-0.01936 2.47008 0.09600
-0.34424 1.75620 0.08939
-0.84901 2.00794 0.08096
-0.22558 3.04518 0.02000
-0.16037 2.54936 0.07552
-0.03830 2.02182 0.09600
-0.20934 3.55620 0.05943
-0.24697 2.51136 0.07730
-0.00581 1.88017 0.03984
-0.03316 2.46472 0.09600
-0.44362 1.78094 0.09600
-0.53908 2.04594 0.07522
-0.00581 2.57888 0.03456
-0.28971 2.04594 0.06353
-0.67073 1.79420 0.04958
-0.70832 2.78722 0.09600
-0.00581 3.33880 0.06862
-0.59117 2.00794 0.04999
-0.78164 2.25965 0.08404
-0.23900 2.25965 0.03505
-0.86781 3.38913 0.05776
-0.45285 1.77757 0.02000
-0.77900 1.75620 0.08050
-0.90581 1.81956 0.03028
-0.15956 2.76307 0.03140
-0.00581 2.99866 0.06085
-0.30019 3.30449 0.04008
-0.86781 3.07371 0.03044
-0.02887 2.79525 0.09600
-0.50452 3.26766 0.09600
-0.90581 2.33918 0.03204
-0.59533 2.03888 0.09600
-0.36133 2.76307 0.02060
-0.45059 2.04546 0.02000
-0.49647 2.79693 0.02000
-0.20186 3.01874 0.09600
-0.55646 3.52447 0.02000
-0.10120 3.01478 0.06982
-0.86781 2.89132 0.04953
-0.63569 3.02572 0.09600
-0.35255 2.54491 0.09600
-0.52415 2.51136 0.02092
-0.77804 2.54843 0.09600
-0.63214 2.00794 0.06632
-0.40119 1.75620 0.02498
-0.86781 3.26385 0.02744
-0.27619 2.76684 0.02000
-0.60240 2.04594 0.03646
-0.74936 2.03120 0.02000
-0.05569 2.25965 0.02971
-0.36655 3.55620 0.08987
-0.71839 2.03265 0.09600
-0.04381 2.17662 0.08496
-0.23450 2.04594 0.03117
-0.04946 3.30449 0.06764
-0.00581 1.94074 0.06149
-0.18591 2.54936 0.04499
-0.59469 2.51136 0.06934
-0.63295 3.02014 0.09600
-0.32679 2.03893 0.02000
-0.89839 2.08826 0.02000
-0.67114 3.04476 0.09600
-0.48429 2.51136 0.06148
-0.00581 2.25945 0.05452
-0.25175 2.01305 0.09600
-0.68563 3.03186 0.09600
-0.86781 2.61473 0.07410
-0.57678 3.02605 0.02000
-0.86781 2.40665 0.08812
-0.14737 1.75620 0.07914
-0.25433 3.01478 0.04743
-0.27007 2.25965 0.06005
-0.04484 2.00794 0.04646
-0.55143 3.01478 0.05326
-0.90519 2.43475 0.09600
-0.49823 3.29867 0.09600
-0.16391 3.55620 0.04269
-0.15560 3.30449 0.08349
-0.54364 2.76307 0.09309
-0.04381 3.43906 0.07491
-0.77175 2.25965 0.04107
-0.75367 2.54936 0.04541
-0.70436 2.80107 0.03263
-0.16607 2.54936 0.08990
-0.86781 2.20313 0.02171
-0.08100 2.25965 0.07093
-0.26009 2.76307 0.07810
-0.82363 2.29765 0.06562
-0.04381 2.56874 0.04313
-0.20005 3.01478 0.09269
-0.57873 2.00794 0.07487
-0.71450 3.01478 0.06818
-0.27516 3.26649 0.05289
-0.04381 3.32534 0.02054
-0.80630 3.02206 0.09600
-0.04381 2.20926 0.03342
-0.00581 3.01430 0.04253
-0.01051 2.90990 0.02000
-0.00581 2.30153 0.04722
-0.84786 1.79420 0.09560
-0.00581 1.86734 0.08014
-0.12679 2.00794 0.07782
-0.86781 1.92868 0.07089
-0.00581 3.22921 0.08438
-0.00581 2.33203 0.06879
-0.53877 2.76307 0.04323
-0.84029 1.75620 0.04639
-0.29766 2.03337 0.09600
-0.13464 3.05278 0.09410
-0.64840 3.03342 0.09600
-0.23452 3.05278 0.07523
-0.87801 3.36860 0.09600
-0.12341 2.00794 0.03015
-0.04381 2.24800 0.02838
-0.50221 2.54936 0.05161
-0.72318 3.53790 0.09600
-0.36177 2.76307 0.02322
-0.87507 2.98958 0.09600
-0.01906 3.55620 0.08696
-0.69247 2.00794 0.05959
-0.33809 3.04223 0.09600
-0.02962 3.39192 0.09600
-0.86781 3.44476 0.04447
-0.90581 1.81890 0.02221
-0.10320 2.00794 0.06234
-0.86781 1.88723 0.07214
-0.70422 1.79420 0.03583
-0.00581 2.98939 0.02672
-0.27897 3.55620 0.06398
-0.49809 3.05278 0.08021
-0.90581 3.10878 0.02807
-0.32971 3.01478 0.03588
-0.72974 3.04611 0.09600
-0.03217 2.30538 0.09600
-0.50859 2.51136 0.04386
-0.86781 3.19921 0.07690
-0.04381 1.99534 0.07482
-0.18204 3.30449 0.02914
-0.87185 3.33570 0.09600
-0.86781 2.25786 0.06684
-0.74197 2.04594 0.08313
-0.00581 3.14463 0.05206
-0.39665 3.05278 0.02330
-0.02922 3.10863 0.02000
-0.72882 3.51820 0.07800
-0.78602 3.01478 0.07620
-0.30131 3.01478 0.03948
-0.90581 2.55829 0.05452
-0.42690 2.54936 0.03489
-0.55061 2.27819 0.09600
-0.04381 1.81832 0.05325
-0.68950 3.05278 0.03454
-0.90581 3.51246 0.06249
-0.08489 2.04535 0.02000
-0.85520 3.30229 0.02000
-0.90581 1.85630 0.02906
-0.15349 3.30449 0.04800
-0.51786 1.75620 0.07378
-0.81384 3.51820 0.03474
-0.37083 1.75620 0.06846
-0.71133 2.25965 0.06698
-0.19976 3.01541 0.02000
-0.21290 2.01901 0.09600
-0.02428 3.00005 0.02000
-0.12921 3.51820 0.04678
-0.64802 2.79056 0.02000
-0.38769 1.75620 0.02628
-0.04381 3.50469 0.09245
-0.87042 2.18442 0.09600
-0.00581 2.60953 0.03471
-0.41795 3.01568 0.09600
-0.58217 1.79420 0.02617
-0.63841 1.78405 0.02000
-0.87828 2.99149 0.09600
-0.11149 2.29765 0.05879
-0.13929 3.27143 0.09600
-0.00581 1.83961 0.07126
-0.20905 3.05278 0.09588
-0.70355 1.75620 0.09421
-0.88214 2.23097 0.02000
-0.12666 3.30449 0.05360
-0.15558 2.04594 0.07694
-0.62104 2.04594 0.04265
-0.36466 1.75620 0.02558
-0.44819 2.54936 0.06367
-0.36562 2.01631 0.02000
-0.07353 3.03075 0.09600
-0.26544 2.02119 0.02000
-0.61478 2.80107 0.05852
-0.30078 3.05278 0.03791
-0.77747 2.25965 0.08349
-0.41987 3.05278 0.07976
-0.39244 2.53393 0.02000
-0.80676 1.76839 0.09600
-0.86781 3.16490 0.08467
-0.26803 2.76307 0.08104
-0.65761 2.25965 0.06582
-0.83216 2.51136 0.03034
-0.00581 3.47852 0.06756
-0.22644 1.75620 0.03937
-0.86781 3.19457 0.07680
-0.58799 3.03976 0.09600
-0.55919 2.04594 0.07211
-0.27159 2.04594 0.06501
-0.33713 3.26649 0.05156
-0.53070 3.55620 0.04321
-0.90581 1.92954 0.05243
-0.19075 2.00794 0.09033
-0.23524 3.27870 0.02000
-0.23708 2.04489 0.09600
-0.28955 2.00794 0.06094
-0.59789 2.00794 0.05015
-0.20887 2.80107 0.02177
-0.45068 2.00794 0.06692
-0.04381 1.86200 0.09114
-0.65493 2.28003 0.09600
-0.43764 2.54936 0.06857
-0.00581 2.29386 0.05727
-0.17787 1.79420 0.09239
-0.63215 2.29485 0.09600
-0.16629 3.26649 0.05009
-0.73186 2.51136 0.09533
-0.01847 3.38072 0.09600
-0.64708 3.26649 0.05393
-0.90581 2.01941 0.06200
-0.86781 1.86033 0.04959
-0.04381 2.38439 0.08616
-0.22147 3.51820 0.07812
-0.88898 2.93197 0.02000
-0.64272 3.01815 0.02000
-0.44720 2.28303 0.09600
-0.35789 3.51911 0.09600
-0.36229 2.25965 0.02786
-0.04365 2.81745 0.02000
-0.00931 2.78994 0.02000
-0.17714 2.76307 0.04794
-0.25578 2.76307 0.09401
-0.90581 1.82408 0.02574
-0.52178 3.05278 0.03208
-0.04381 3.49838 0.05872
-0.81258 3.55620 0.02357
-0.86781 2.18997 0.06963
-0.90581 2.17879 0.04558
-0.04259 3.14806 0.02000
-0.62138 2.04594 0.05204
-0.42042 3.55050 0.09600
-0.86781 2.35637 0.04390
-0.46176 2.04594 0.08826
-0.00581 2.51816 0.07503
-0.06025 1.75620 0.04257
-0.71903 2.80107 0.08961
-0.80677 1.77591 0.09600
-0.21169 1.78879 0.02000
-0.11955 2.76307 0.04427
-0.88142 2.51561 0.09600
-0.86974 2.58077 0.02000
-0.73976 3.05278 0.05152
-0.51109 2.01458 0.09600
-0.90581 2.47892 0.03232
-0.90581 3.53953 0.04190
-0.65424 3.55620 0.09455
-0.90581 3.41687 0.05350
-0.00908 2.64005 0.09600
-0.00581 1.79906 0.02658
-0.86781 2.36124 0.06360
-0.85315 3.54209 0.09600
-0.01003 3.42490 0.09600
-0.64655 2.29099 0.09600
-0.90581 3.16189 0.06150
-0.00581 2.03153 0.08837
-0.06953 1.75620 0.09072
-0.05132 2.25965 0.03976
-0.75994 2.54936 0.04511
-0.29809 3.54829 0.02000
-0.07853 3.53568 0.09600
-0.39482 3.51820 0.04681
-0.04381 3.22818 0.08628
-0.86990 3.35990 0.02000
-0.38813 3.55620 0.07770
-0.90581 2.43409 0.02565
-0.27045 3.30449 0.04528
-0.65259 3.51820 0.02148
-0.38419 2.29765 0.07205
-0.04381 2.21749 0.09204
-0.48406 2.28800 0.02000
-0.71786 2.80107 0.08352
-0.77063 3.51820 0.06879
-0.48162 3.52441 0.02000
-0.02819 2.20338 0.02000
-0.44804 3.55620 0.07909
-0.35108 2.25965 0.06719
-0.30485 3.55620 0.06454
-0.90581 3.28982 0.04124
-0.00581 1.86064 0.06700
-0.04381 3.43435 0.04089
-0.29525 1.79420 0.06562
-0.04381 2.37187 0.05572
-0.90328 2.14535 0.09600
-0.90289 2.18251 0.02000
-0.22371 2.51136 0.06082
-0.90408 2.64476 0.09600
-0.01234 2.26766 0.09600
-0.41027 1.75620 0.02999
-0.62033 3.05278 0.06967
-0.43781 2.28791 0.09600
-0.76514 2.80107 0.05522
-0.04381 1.92167 0.03838
-0.20183 2.25965 0.02136
-0.21271 1.79420 0.09448
-0.64035 2.76307 0.07918
-0.25129 2.54936 0.06671
-0.79406 1.75620 0.03336
-0.18815 2.29765 0.08287
-0.37246 2.02782 0.09600
-0.28520 1.79420 0.06014
-0.21666 1.75969 0.02000
-0.27205 2.25965 0.04378
-0.00581 2.35564 0.06188
-0.07684 2.27548 0.09600
-0.03836 2.68442 0.09600
-0.55736 3.02307 0.02000
-0.00581 1.75953 0.05990
-0.42107 3.01927 0.09600
-0.90581 3.30424 0.05105
-0.31820 2.54936 0.03351
-0.00581 2.37464 0.04040
-0.00581 2.52337 0.06967
-0.11085 2.51136 0.02675
-0.04381 1.99520 0.08605
-0.48005 3.28099 0.09600
-0.23299 3.26649 0.05873
-0.42788 2.29765 0.05785
-0.84469 1.75620 0.05708
-0.58739 3.53472 0.09600
-0.78320 2.80107 0.06864
-0.90581 2.74389 0.02249
-0.50819 2.25965 0.02276
-0.84181 2.54936 0.03370
-0.04266 2.65894 0.09600
-0.63479 3.01478 0.06730
-0.56380 2.29135 0.09600
-0.90224 2.46684 0.09600
-0.12856 2.80107 0.04474
-0.20616 2.00794 0.04410
-0.14241 2.51136 0.03395
-0.79683 1.79420 0.02796
-0.05321 1.79420 0.07913
-0.83087 2.54936 0.08050
-0.79131 3.27040 0.02000
-0.54688 2.03879 0.09600
-0.85424 3.26649 0.07195
-0.49768 2.26921 0.02000
-0.38221 2.54813 0.02000
-0.04381 1.92734 0.08261
-0.86781 1.99543 0.05615
-0.14298 2.54936 0.04672
-0.03810 2.81080 0.09600
-0.88555 1.99065 0.02000
-0.75091 2.00794 0.07437
-0.79186 2.76307 0.02063
-0.86781 1.92590 0.02267
-0.77523 1.77906 0.09600
-0.40942 2.54936 0.06103
-0.43492 3.51820 0.04559
-0.75911 2.29401 0.09600
-0.81095 2.80107 0.02408
-0.36843 2.76307 0.07170
-0.29579 2.29765 0.04366
-0.57411 3.51820 0.02120
-0.63149 1.79420 0.08680
-0.02197 1.80574 0.09600
-0.60092 1.75620 0.03128
-0.00581 2.32290 0.05326
-0.86781 2.06054 0.04097
-0.28536 2.00794 0.04812
-0.70251 1.75620 0.03959
-0.86781 3.00983 0.05905
-0.09949 2.26002 0.09600
-0.48626 3.30449 0.06771
-0.32551 2.54936 0.07446
-0.90196 2.41989 0.09600
-0.66954 3.01478 0.02475
-0.57340 3.26649 0.07852
-0.33510 2.79031 0.02000
-0.56961 3.26649 0.08444
-0.12561 2.29765 0.08092
-0.03613 3.55031 0.09600
-0.00581 2.64762 0.02567
-0.43315 2.27368 0.02000
-0.21965 1.78650 0.02000
-0.48266 2.29765 0.07648
-0.45342 3.03997 0.02000
-0.04381 3.51638 0.02390
-0.49097 2.00794 0.08598
-0.55413 2.54936 0.08836
-0.24185 1.77269 0.02000
-0.67561 3.03981 0.09600
-0.17956 3.26649 0.02109
-0.86781 3.08457 0.05324
-0.72145 3.51820 0.03327
-0.02556 2.20684 0.02000
-0.90581 2.18708 0.05495
-0.30456 3.02425 0.02000
-0.77477 3.54354 0.02000
-0.45998 2.54936 0.05194
-0.51804 2.28535 0.09600
-0.27544 2.76307 0.09523
-0.89493 2.65960 0.02000
-0.09375 2.29765 0.04992
-0.55486 3.01478 0.08790
-0.04381 2.93515 0.03311
-0.88873 3.24681 0.09600
-0.16879 2.03599 0.09600
-0.52978 3.03365 0.09600
-0.00581 2.66468 0.08237
-0.17807 3.51820 0.02938
-0.80106 3.05278 0.08689
-0.00581 2.34016 0.02054
-0.13207 2.51136 0.05383
-0.15816 2.76307 0.06793
-0.64636 2.25965 0.03976
-0.25954 2.26947 0.02000
-0.86487 2.29765 0.07815
-0.86075 2.04594 0.04492
-0.02618 3.47587 0.02000
-0.75807 3.28332 0.02000
-0.81212 2.51136 0.09492
-0.26923 3.30449 0.05890
-0.21351 2.25965 0.08086
-0.84797 2.29765 0.08791
-0.26812 2.29765 0.07168
-0.10590 3.27884 0.02000
-0.70747 2.25965 0.08703
-0.00581 2.98058 0.02988
-0.60362 2.04594 0.09342
-0.87819 3.35681 0.09600
-0.04381 2.33384 0.05447
-0.90115 2.53606 0.09600
-0.89971 2.92809 0.09600
-0.40947 2.29092 0.02000
-0.31167 3.05278 0.06609
-0.00581 2.70433 0.04731
-0.36107 2.51136 0.08259
-0.46987 3.01478 0.03591
-0.04000 2.98521 0.09600
-0.07156 2.25965 0.07713
-0.18438 2.80107 0.08980
-0.04381 2.87664 0.05384
-0.86974 3.26030 0.02000
-0.34231 2.79742 0.09600
-0.00581 1.87039 0.04695
-0.59517 2.29765 0.02413
-0.64317 2.80107 0.05818
-0.15687 1.75620 0.08192
-0.47099 2.25965 0.06288
-0.23678 2.76468 0.09600
-0.89546 2.73781 0.09600
-0.04068 1.84274 0.09600
-0.90581 2.37627 0.06532
-0.76105 3.28223 0.09600
-0.17037 1.75620 0.04020
-0.04381 2.30187 0.02386
-0.29102 2.04594 0.05305
-0.90581 3.51248 0.08002
-0.86389 3.26649 0.07977
-0.00581 2.29419 0.06292
-0.90140 2.58064 0.09600
-0.17809 2.76307 0.05080
-0.37141 1.79420 0.07339
-0.04381 3.32013 0.04216
-0.37065 3.55620 0.03315
-0.74368 2.80107 0.08883
-0.48679 2.52015 0.02000
-0.68326 1.77427 0.09600
-0.43013 3.55620 0.05681
-0.49675 2.79807 0.02000
-0.15117 1.75620 0.05646
-0.04381 2.17559 0.07326
-0.48565 2.25965 0.04858
-0.52328 3.29263 0.02000
-0.75248 3.30449 0.06593
-0.15612 2.51786 0.09600
-0.52263 3.55620 0.06253
-0.14550 3.28028 0.09600
-0.17905 3.29607 0.02000
-0.87114 2.33805 0.09600
-0.04381 2.51063 0.07215
-0.00909 2.20869 0.09600
-0.88624 2.25316 0.09600
-0.27739 2.29254 0.02000
-0.59195 2.00794 0.08629
-0.30810 3.29460 0.09600
-0.85854 2.04594 0.08824
-0.20378 2.51136 0.03297
-0.02231 2.72975 0.02000
-0.29670 2.25965 0.03548
-0.04081 2.28101 0.09600
-0.89982 1.91366 0.02000
-0.36817 1.78699 0.09600
-0.86932 3.22885 0.02000
-0.90581 1.77960 0.03764
-0.88966 2.78453 0.09600
-0.14467 3.30449 0.08132
-0.70079 3.51820 0.02870
-0.02326 2.04905 0.02000
-0.79397 3.30449 0.05288
-0.05817 1.75620 0.07946
-0.54285 1.79420 0.04944
-0.55551 2.54936 0.08423
-0.90581 2.95927 0.04734
-0.25679 2.80107 0.07246
-0.72765 3.01478 0.07554
-0.69754 3.02895 0.02000
-0.42498 2.51935 0.02000
-0.44330 2.76307 0.06458
-0.49210 2.25965 0.04836
-0.69069 3.51820 0.06850
-0.00581 2.20625 0.05924
-0.11984 3.01478 0.03760
-0.13126 2.00794 0.06064
-0.25384 3.51820 0.08170
-0.86397 2.54270 0.02000
-0.56922 3.51820 0.06019
-0.04381 3.23337 0.09121
-0.86781 2.11662 0.08399
-0.54287 3.02783 0.09600
-0.59494 2.00794 0.06748
-0.04381 2.38869 0.03021
-0.53640 3.05278 0.03012
-0.20254 3.30449 0.07008
-0.68708 2.76307 0.08861
-0.57576 2.04594 0.05014
-0.77101 3.26649 0.04653
-0.00581 2.33840 0.08531
-0.55530 2.78207 0.09600
-0.15224 2.04594 0.08444
-0.49375 2.80107 0.05430
-0.90581 2.12413 0.03719
-0.70355 2.78545 0.09600
-0.04139 2.95077 0.09600
-0.79434 2.51136 0.02029
-0.90581 1.78885 0.09308
-0.06195 3.30449 0.03936
-0.81186 3.30449 0.07413
-0.49946 1.79420 0.06028
-0.50998 1.77678 0.09600
-0.34682 3.26649 0.03325
-0.53396 2.25965 0.05759
-0.90115 3.21764 0.09600
-0.69778 2.54936 0.04663
-0.01489 2.97433 0.02000
-0.68663 1.75620 0.06120
-0.80262 3.05214 0.09600
-0.87175 3.04865 0.02000
-0.81780 3.01478 0.09449
-0.00581 2.44859 0.04449
-0.02763 1.75620 0.03370
-0.90581 3.22641 0.04207
-0.03801 2.17016 0.09600
-0.00581 3.45378 0.07810
-0.21090 3.30449 0.06573
-0.72685 3.26649 0.06858
-0.46655 2.76307 0.06493
-0.75392 1.76725 0.02000
-0.03297 2.35270 0.09600
-0.88170 2.82827 0.02000
-0.36261 2.76307 0.08167
-0.87958 2.11611 0.09600
-0.02026 3.18009 0.02000
-0.22451 3.53205 0.02000
-0.12508 2.54936 0.02384
-0.60990 2.00794 0.08551
-0.48645 3.01478 0.08165
-0.00581 2.27350 0.05274
-0.04381 2.13921 0.02155
-0.04381 2.75541 0.05614
-0.00581 2.85931 0.02298
-0.29833 2.54936 0.09197
-0.38290 3.55620 0.07106
-0.42345 2.29765 0.07214
-0.10650 3.01478 0.08589
-0.04381 2.92286 0.07658
-0.86781 2.14458 0.05276
-0.80964 3.30449 0.08369
-0.86094 3.26649 0.09447
-0.88785 2.38404 0.09600
-0.87404 2.58466 0.02000
-0.89988 3.55620 0.06057
-0.11940 3.29077 0.09600
-0.73550 2.54936 0.02507
-0.04381 2.05499 0.04639
-0.29098 3.01478 0.03925
-0.55828 2.54936 0.02609
-0.64083 3.55620 0.03777
-0.51107 3.52583 0.02000
-0.13699 3.29215 0.02000
-0.77251 3.51820 0.04169
-0.67335 3.52517 0.02000
-0.81435 2.53333 0.09600
-0.66777 3.54753 0.02000
-0.32470 2.80107 0.04770
-0.48375 3.30449 0.09302
-0.86781 2.98146 0.08013
-0.86773 2.54936 0.06667
-0.50814 1.77648 0.09600
-0.72079 2.51583 0.09600
-0.46844 3.53829 0.09600
-0.38726 2.80107 0.07364
-0.33275 2.53899 0.09600
-0.90581 2.63784 0.03256
-0.86781 3.13438 0.06248
-0.31212 1.75620 0.07730
-0.04381 3.00353 0.03517
-0.90581 3.14092 0.06913
-0.36160 2.29765 0.05401
-0.63195 3.05278 0.08461
-0.55559 3.26649 0.08765
-0.83235 2.25965 0.03505
-0.02868 3.51514 0.09600
-0.90581 2.36101 0.02254
-0.63200 1.79420 0.02848
-0.30486 1.79420 0.03193
-0.04381 2.43594 0.05024
-0.36391 2.28125 0.02000
-0.32109 3.01478 0.07698
-0.13502 1.79420 0.07038
-0.08481 3.05278 0.04121
-0.00581 2.87498 0.09204
-0.16922 2.29765 0.05394
-0.90581 3.03601 0.06701
-0.70774 2.29765 0.06201
-0.17166 3.30449 0.03932
-0.53875 2.26317 0.02000
-0.36238 3.30426 0.02000
-0.46005 2.54936 0.05544
-0.88158 3.52056 0.09600
-0.89891 2.37572 0.09600
-0.04381 2.17317 0.03816
-0.01458 1.94488 0.02000
-0.42157 3.26649 0.03083
-0.04694 2.29765 0.07083
-0.71201 2.29765 0.09197
-0.04171 3.04720 0.02000
-0.86781 2.09102 0.06752
-0.32744 3.04980 0.09600
-0.73535 2.54936 0.09452
-0.77181 2.54936 0.09278
-0.02589 3.16399 0.02000
-0.65897 3.05278 0.04420
-0.23826 2.02664 0.02000
-0.90581 2.98200 0.03332
-0.68775 1.75620 0.03465
-0.90581 1.94164 0.09299
-0.27695 3.55620 0.08538
-0.23230 3.55620 0.09360
-0.01326 3.37353 0.02000
-0.00581 2.71388 0.07358
-0.90581 1.91710 0.05472
-0.87521 1.80705 0.09600
-0.45649 2.04594 0.06688
-0.51590 3.01478 0.08004
-0.87219 1.98404 0.02000
-0.55859 1.75744 0.02000
-0.02596 3.07684 0.09600
-0.41008 3.30449 0.08446
-0.10493 3.05278 0.07423
-0.89715 2.05308 0.02000
-0.65221 3.26649 0.03707
-0.04381 3.38380 0.06360
-0.00581 2.89594 0.04896
-0.86781 2.33206 0.04900
-0.10096 2.29765 0.03782
-0.70152 3.30449 0.06480
-0.01803 3.35771 0.02000
-0.42021 3.01478 0.04299
-0.86781 1.99169 0.02846
-0.68402 3.26649 0.08124
-0.17609 2.76307 0.05538
-0.75231 3.27441 0.09600
-0.90581 2.61052 0.03991
-0.82408 2.04594 0.06053
-0.90581 2.62701 0.07842
-0.04381 2.90175 0.03735
-0.01651 2.62800 0.09600
-0.07716 3.54834 0.09600
-0.41280 2.00794 0.04842
-0.04381 3.18616 0.05620
-0.58294 3.02701 0.09600
-0.17720 2.29765 0.07551
-0.09109 2.01587 0.02000
-0.05121 3.54389 0.02000
-0.12693 2.53421 0.02000
-0.60271 2.76307 0.02434
-0.86781 2.49100 0.03359
-0.84844 2.25965 0.07386
-0.01419 2.77331 0.09600
-0.04381 1.93335 0.02555
-0.09973 1.76953 0.09600
-0.86781 1.99077 0.04875
-0.90581 1.80633 0.02281
-0.11704 2.51510 0.02000
-0.26329 2.52411 0.02000
-0.00581 1.81013 0.04076
-0.86781 1.89639 0.05545
-0.08417 3.52620 0.09600
-0.00581 3.15023 0.05402
-0.34167 2.03556 0.09600
-0.90197 2.02679 0.09600
-0.77369 3.51820 0.08220
-0.04649 2.04594 0.02709
-0.49050 3.55620 0.02232
-0.73302 2.25965 0.04130
-0.03520 2.79113 0.02000
-0.22767 2.52016 0.02000
-0.01344 2.97361 0.02000
-0.28374 2.25965 0.07175
-0.69364 3.26649 0.08781
-0.00581 2.56620 0.03975
-0.04381 1.87924 0.08136
-0.00581 2.88927 0.05875
-0.63121 1.79361 0.02000
-0.90581 3.50523 0.03819
-0.27782 2.76307 0.09248
-0.05149 3.01478 0.07045
-0.01567 2.33249 0.09600
-0.19432 3.01478 0.05335
-0.04381 2.46763 0.03901
-0.27367 3.01478 0.08966
-0.28583 2.25965 0.03780
-0.35218 1.75620 0.02372
-0.90538 1.78605 0.02000
-0.30795 2.51136 0.03617
-0.33924 1.79420 0.04652
-0.69568 2.76307 0.02994
-0.54623 2.29689 0.09600
-0.69600 2.51136 0.05250
-0.62630 3.26649 0.06523
-0.42051 3.55620 0.03905
-0.25848 3.30449 0.03418
-0.71509 2.27050 0.09600
-0.04381 2.59092 0.07013
-0.09070 2.54936 0.06795
-0.90051 2.90618 0.02000
-0.34582 2.04538 0.09600
-0.40848 3.30449 0.06837
-0.84377 1.76248 0.09600
-0.79315 2.76307 0.03650
-0.04381 2.41914 0.03662
-0.03730 1.83493 0.09600
-0.85033 2.80107 0.06713
-0.04381 2.71325 0.02415
-0.09665 3.30449 0.02601
-0.81159 2.80107 0.06778
-0.72743 2.54936 0.03021
-0.67186 2.00794 0.09486
-0.80701 1.78473 0.09600
-0.04367 1.75620 0.04483
-0.44894 3.55620 0.04889
-0.90581 1.82199 0.02576
-0.03698 3.30143 0.09600
-0.04381 1.84660 0.05548
-0.15901 2.25965 0.08964
-0.00581 3.06062 0.02223
-0.85467 2.79981 0.02000
-0.00581 2.67190 0.07332
-0.90581 2.43275 0.05353
-0.44870 1.75620 0.09456
-0.35361 2.51136 0.05219
-0.26895 2.52378 0.02000
-0.04381 2.46402 0.06484
-0.86781 3.24869 0.02722
-0.43034 2.54936 0.03579
-0.00581 2.39823 0.06454
-0.06561 2.51136 0.06519
-0.24362 2.29765 0.03294
-0.50368 3.51820 0.08061
-0.43648 2.51136 0.04795
-0.06052 2.51136 0.02484
-0.90581 3.33740 0.09022
-0.12887 3.27359 0.02000
-0.18976 3.01478 0.05333
-0.00581 2.41248 0.03788
-0.90292 1.88295 0.09600
-0.44694 2.51440 0.09600
-0.47533 3.26649 0.06099
-0.82450 3.53329 0.09600
-0.64560 2.80107 0.03969
-0.45965 3.04536 0.02000
-0.00581 2.60123 0.08074
-0.47775 3.30449 0.02479
-0.00581 2.08377 0.03584
-0.08025 2.00794 0.09438
-0.27850 2.76307 0.09341
-0.90581 2.98057 0.06883
-0.24629 1.79420 0.08835
-0.44029 2.02176 0.02000
-0.48918 2.00794 0.06298
-0.16114 2.76307 0.09272
-0.33244 2.54936 0.08452
-0.69944 3.55620 0.06640
-0.31482 2.29765 0.08843
-0.84254 2.78770 0.02000
-0.53724 1.76341 0.02000
-0.04381 2.66944 0.02338
-0.27687 2.76307 0.09008
-0.90161 2.32173 0.02000
-0.00581 2.46148 0.07721
-0.65392 3.51820 0.03821
-0.90581 3.40415 0.05590
-0.63489 2.00794 0.08488
-0.00581 2.21833 0.07761
-0.80648 2.78016 0.02000
-0.50357 2.79103 0.09600
-0.86966 3.31130 0.09600
-0.36192 2.29355 0.09600
-0.58562 3.01601 0.09600
-0.00581 3.04422 0.09280
-0.73854 2.53729 0.02000
-0.48243 2.04594 0.04876
-0.00581 2.05512 0.02954
-0.48429 3.05278 0.07671
-0.83250 2.51136 0.03429
-0.25955 2.25965 0.06938
-0.67908 1.75620 0.05808
-0.08131 3.51820 0.04590
-0.05330 3.51820 0.06519
-0.90581 2.88369 0.09262
-0.04302 2.05868 0.02000
-0.41590 2.51136 0.07736
-0.85102 2.51772 0.02000
-0.82245 1.79420 0.07512
-0.25508 1.77877 0.02000
-0.41820 2.76307 0.07104
-0.16034 3.54484 0.02000
-0.04381 3.51722 0.03409
-0.78594 3.30449 0.06242
-0.00995 1.96305 0.02000
-0.04321 1.84761 0.09600
-0.72289 1.78787 0.02000
-0.14632 3.30449 0.05820
-0.34912 2.54243 0.02000
-0.19695 2.80107 0.05033
-0.04332 1.78673 0.02000
-0.61753 2.04594 0.03916
-0.85362 3.05278 0.06525
-0.00581 2.34184 0.05844
-0.59916 2.54936 0.05055
-0.57698 2.51136 0.02615
-0.09370 2.28925 0.09600
-0.49816 2.80107 0.03782
-0.00590 3.17733 0.02000
-0.72976 3.52328 0.09600
-0.63330 2.25965 0.08532
-0.48132 2.76307 0.03983
-0.59230 2.01316 0.02000
-0.87847 2.69472 0.02000
-0.23848 3.30449 0.07928
-0.17320 3.51820 0.03525
-0.16837 1.75620 0.03483
-0.34438 1.77009 0.02000
-0.87899 1.82940 0.09600
-0.60103 3.55620 0.04311
-0.81646 2.29765 0.08339
-0.37625 2.04594 0.04340
-0.87891 3.53166 0.09600
-0.04051 3.32045 0.02000
-0.00581 3.01916 0.08336
-0.88853 2.21310 0.02000
-0.06687 2.25965 0.08619
-0.90581 3.08334 0.05296
-0.76735 2.29765 0.05660
-0.63423 2.54936 0.02019
-0.54164 1.79403 0.09600
-0.04381 2.43447 0.04636
-0.27689 3.30449 0.05377
-0.79958 3.27506 0.09600
-0.86781 3.17582 0.03519
-0.24761 3.26649 0.06642
-0.49783 3.29971 0.09600
-0.39517 3.55464 0.09600
-0.35839 2.80107 0.07042
-0.90581 1.98178 0.08480
-0.04381 2.93835 0.03062
-0.00647 1.87944 0.09600
-0.39887 2.02780 0.09600
-0.00581 2.23154 0.03071
-0.21967 2.04594 0.04128
-0.00581 2.65544 0.03800
-0.83541 2.76307 0.03035
-0.41320 3.01478 0.07447
-0.86781 1.87932 0.06537
-0.86781 3.34282 0.07348
-0.76390 2.79755 0.09600
-0.18934 2.76307 0.06446
-0.90581 3.26077 0.02565
-0.00591 2.11215 0.09600
-0.72736 2.00794 0.04462
-0.90581 2.92817 0.08005
-0.88958 2.93584 0.02000
-0.02631 2.45041 0.09600
-0.45530 1.76100 0.02000
-0.40098 1.75620 0.03411
-0.02319 2.05194 0.09600
-0.86781 2.06178 0.04451
-0.41794 3.29336 0.02000
-0.47952 3.26737 0.09600
-0.28255 1.77064 0.09600
-0.86781 2.13198 0.04049
-0.86781 1.86616 0.07028
-0.00581 2.53888 0.04114
-0.01925 3.09491 0.02000
-0.69296 3.26649 0.08799
-0.02189 3.47708 0.02000
-0.86781 2.30603 0.04847
-0.82304 3.27044 0.02000
-0.00581 1.84473 0.07965
-0.39599 2.29765 0.03349
-0.63317 3.01875 0.09600
-0.30901 2.54936 0.02283
-0.54319 3.03096 0.02000
-0.90581 2.80240 0.02950
-0.08384 3.51820 0.06059
-0.90581 1.89763 0.06272
-0.25430 1.75620 0.08605
-0.00581 2.28165 0.02806
-0.37400 3.53646 0.02000
-0.73004 3.05278 0.05632
-0.68354 3.02785 0.09600
-0.03983 2.36218 0.02000
-0.04381 2.42187 0.07068
-0.03899 2.56422 0.09600
-0.19947 2.54694 0.09600
-0.09388 2.76307 0.03006
-0.07669 2.27913 0.02000
-0.69230 2.27376 0.09600
-0.68244 2.28026 0.02000
-0.90581 3.14686 0.07642
-0.04381 2.36337 0.02444
-0.88606 2.52310 0.02000
-0.33097 3.05278 0.03639
-0.61585 3.01478 0.07523
-0.19620 2.00794 0.09298
-0.90581 3.33575 0.06681
-0.00581 3.19947 0.02227
-0.54459 2.29765 0.03860
-0.73315 2.29765 0.05191
-0.04381 2.42916 0.09247
-0.79182 3.05278 0.02712
-0.57481 3.54465 0.09600
-0.14276 2.54936 0.03615
-0.03358 3.11734 0.09600
-0.50406 3.01478 0.09079
-0.00581 2.93216 0.06101
-0.53712 2.76307 0.07932
-0.89774 3.44351 0.02000
-0.59193 1.77766 0.02000
-0.87994 3.21901 0.02000
-0.52889 3.01478 0.06338
-0.00581 2.03520 0.06127
-0.80430 3.26649 0.04763
-0.04381 3.17905 0.02693
-0.70322 1.78101 0.02000
-0.04381 3.31192 0.04736
-0.57366 2.04594 0.02839
-0.85395 3.55620 0.05188
-0.04381 2.43919 0.09076
-0.44551 3.05278 0.04422
-0.47475 3.55620 0.04939
-0.09650 2.54936 0.02461
-0.13061 2.29765 0.06996
-0.00581 2.16626 0.02836
-0.01673 2.65403 0.02000
-0.36819 2.04594 0.08711
-0.29730 3.30449 0.03900
-0.47940 2.54936 0.08343
-0.40168 1.78240 0.09600
-0.46865 3.02798 0.02000
-0.60144 3.26649 0.02829
-0.86781 3.40973 0.06515
-0.45522 1.79420 0.07789
-0.48961 2.28912 0.09600
-0.00581 3.48606 0.06375
-0.86781 2.65366 0.03768
-0.04381 1.98411 0.08158
-0.19891 3.30449 0.04465
-0.04866 2.03284 0.02000
-0.47647 3.51820 0.09300
-0.31635 2.00794 0.07618
-0.79689 3.27198 0.09600
-0.00581 2.33051 0.04988
-0.46692 3.01478 0.04513
-0.06051 2.25965 0.04780
-0.12371 2.51136 0.02295
-0.04381 2.44056 0.06043
-0.69297 3.51820 0.04149
-0.43515 2.52533 0.09600
-0.89769 3.09735 0.09600
-0.66285 2.00794 0.07393
-0.00971 1.88211 0.02000
-0.86905 3.33764 0.02000
-0.02842 3.39279 0.02000
-0.88771 2.98636 0.02000
-0.17663 3.01478 0.05468
-0.00581 2.19241 0.08060
-0.57924 2.25965 0.08879
-0.62973 2.54936 0.08447
-0.54053 2.04248 0.09600
-0.37642 2.29765 0.09184
-0.74436 3.51820 0.02456
-0.90581 3.27353 0.05413
-0.18338 2.04594 0.02067
-0.69185 3.51820 0.08226
-0.24315 3.55620 0.02156
-0.04381 1.81510 0.08915
-0.01811 3.55620 0.02126
-0.10069 2.80107 0.02832
-0.05739 2.80107 0.06282
-0.02523 1.88428 0.09600
-0.82758 2.51136 0.05368
-0.02236 2.89028 0.09600
-0.43888 2.03351 0.09600
-0.90581 2.30704 0.06329
-0.73237 2.53781 0.02000
-0.16345 2.80107 0.05155
-0.28131 2.29259 0.09600
-0.49554 3.26649 0.02394
-0.79784 2.28642 0.02000
-0.04579 2.76307 0.08443
-0.13769 3.27467 0.02000
-0.72698 2.25965 0.09326
-0.87280 2.52616 0.02000
-0.26456 3.01478 0.02747
-0.60013 3.26649 0.05071
-0.73217 3.26649 0.04765
-0.20554 3.02751 0.09600
-0.33851 1.78970 0.09600
-0.74522 2.02435 0.02000
-0.86049 2.02194 0.02000
-0.29908 2.00794 0.04964
-0.37907 3.01478 0.02060
-0.04266 3.05875 0.02000
-0.10372 2.25965 0.09358
-0.11133 1.79125 0.02000
-0.17453 2.27788 0.09600
-0.13176 2.80107 0.06486
-0.28181 3.05278 0.05610
-0.90581 1.77466 0.06271
-0.56400 2.79972 0.02000
-0.28018 2.25965 0.05968
-0.82891 2.76307 0.09447
-0.27700 2.79736 0.09600
-0.86781 1.92643 0.09405
-0.44422 3.05278 0.02712
-0.86781 1.81028 0.04251
-0.10292 3.01478 0.05811
-0.37513 3.55620 0.05426
-0.70988 2.51136 0.06457
-0.32404 3.55620 0.07838
-0.00581 3.31448 0.07866
-0.59900 3.01478 0.03149
-0.19319 2.80107 0.07964
-0.04841 2.51136 0.04113
-0.75815 1.75620 0.04257
-0.90581 3.11442 0.07947
-0.00581 2.80620 0.04712
-0.66914 3.51820 0.04942
-0.04381 1.97471 0.06874
-0.34029 2.54936 0.09587
-0.11004 1.79420 0.06816
-0.32967 3.55082 0.09600
-0.44392 1.77247 0.02000
-0.36577 2.80107 0.07536
-0.72807 2.54936 0.03708
-0.03326 2.02381 0.09600
-0.66607 2.76307 0.02867
-0.90581 1.82286 0.08458
-0.34636 2.27681 0.09600
-0.78209 3.30449 0.02414
-0.30465 3.53045 0.02000
-0.42688 3.28595 0.09600
-0.01352 3.20836 0.02000
-0.46042 2.54936 0.09403
-0.64600 2.54936 0.09310
-0.63455 1.79420 0.02747
-0.42954 2.00794 0.06614
-0.54860 2.54936 0.02537
-0.60088 3.26649 0.05004
-0.46040 3.01478 0.05611
-0.01313 1.86059 0.09600
-0.00581 2.92556 0.08753
-0.77607 3.26649 0.03851
-0.66841 3.01478 0.03097
-0.86781 1.92215 0.03508
-0.59681 3.01478 0.08485
-0.24464 2.80107 0.09156
-0.17684 3.26649 0.07266
-0.01414 3.14033 0.02000
-0.33651 2.54936 0.02772
-0.62062 2.27483 0.02000
-0.00581 2.75900 0.05922
-0.89770 1.75620 0.08678
-0.01241 1.79242 0.09600
-0.04381 2.89109 0.04994
-0.53415 1.77620 0.09600
-0.00581 2.09634 0.07515
-0.03340 2.36156 0.02000
-0.27115 1.75620 0.09483
-0.00581 3.10626 0.04429
-0.31194 2.54936 0.09290
-0.00581 2.17628 0.06937
-0.63296 2.76307 0.06026
-0.43520 3.54781 0.02000
-0.11028 2.51136 0.05091
-0.76620 2.25965 0.04260
-0.68616 2.01988 0.02000
-0.46492 1.75620 0.05312
-0.90581 2.76732 0.07148
-0.86781 3.00431 0.04494
-0.00581 3.38321 0.04583
-0.10199 2.51828 0.09600
-0.00581 3.19513 0.08937
-0.70515 3.53340 0.02000
-0.88567 2.01484 0.09600
-0.90068 3.45268 0.02000
-0.04381 3.20303 0.08877
-0.20117 2.52086 0.09600
-0.90581 2.43257 0.05688
-0.04381 3.09698 0.03184
-0.90581 1.95680 0.04764
-0.86781 2.87726 0.07378
-0.00581 2.26506 0.04139
-0.05436 1.79232 0.09600
-0.02076 2.03408 0.09600
-0.46780 3.29537 0.09600
-0.64637 1.79420 0.02030
-0.36568 2.76307 0.05688
-0.03540 3.22102 0.02000
-0.50653 2.51136 0.08300
-0.00581 3.12837 0.06457
-0.18822 3.27108 0.02000
-0.37057 3.27152 0.09600
-0.75545 2.53119 0.09600
-0.11623 2.25965 0.02967
-0.00581 2.85467 0.06810
-0.23594 2.25965 0.02563
-0.28117 2.76307 0.09290
-0.12268 3.26905 0.02000
-0.58880 2.00794 0.05879
-0.08988 2.29765 0.08139
-0.18608 2.29765 0.08610
-0.54192 3.26649 0.09515
-0.28100 2.76307 0.08581
-0.48365 2.53048 0.09600
-0.73314 2.29765 0.05797
-0.89309 1.91501 0.02000
-0.46123 1.75620 0.08783
-0.73366 3.30449 0.04647
-0.86781 2.29920 0.02278
-0.60279 3.26649 0.07086
-0.50770 3.01478 0.08668
-0.83108 3.01478 0.04607
-0.90581 3.19129 0.07712
-0.46616 3.30449 0.09241
-0.38233 3.55620 0.07853
-0.64166 2.76307 0.02339
-0.03175 2.62317 0.02000
-0.24845 2.29765 0.06923
-0.04381 2.17499 0.07956
-0.01172 3.18065 0.02000
-0.34787 2.04273 0.02000
-0.02031 3.55620 0.04361
-0.38858 2.01544 0.02000
-0.43034 2.80107 0.07183
-0.83090 2.04594 0.06810
-0.00581 2.29084 0.03191
-0.87299 3.09236 0.09600
-0.24398 2.54936 0.05573
-0.24968 3.30449 0.03835
-0.67451 1.75620 0.08366
-0.12547 1.79420 0.09206
-0.03157 1.92346 0.02000
-0.39660 2.76307 0.09378
-0.04381 2.09627 0.03280
-0.30851 2.29147 0.09600
-0.80058 2.51136 0.09105
-0.82182 3.29283 0.02000
-0.55294 3.51820 0.06865
-0.00954 2.16096 0.09600
-0.81982 2.00794 0.03276
-0.11991 3.03137 0.02000
-0.89998 1.93261 0.02000
-0.29946 2.01321 0.02000
-0.66913 2.29765 0.08147
-0.78905 3.26649 0.04115
-0.58340 2.80107 0.06529
-0.27308 2.51136 0.06150
-0.04381 1.91556 0.07670
-0.26289 3.01478 0.02593
-0.64441 2.01083 0.02000
-0.04381 1.89074 0.05194
-0.73584 3.30449 0.03066
-0.12077 2.76307 0.02145
-0.86781 3.00531 0.04534
-0.02065 2.94099 0.02000
-0.15884 2.77759 0.09600
-0.21444 2.00901 0.09600
-0.09325 3.55620 0.08500
-0.75300 2.25965 0.06266
-0.15881 2.80107 0.05345
-0.53723 2.29662 0.09600
-0.89943 2.99381 0.09600
-0.55094 3.01478 0.06626
-0.86781 2.45705 0.06173
-0.27867 3.26649 0.09167
-0.51877 2.27189 0.02000
-0.90581 1.90413 0.07586
-0.46460 2.26698 0.09600
-0.50762 3.01478 0.03733
-0.86781 2.09389 0.05157
-0.16605 2.25965 0.07999
-0.00581 3.45567 0.05322
-0.88474 2.25898 0.02000
-0.31398 2.79162 0.09600
-0.70088 2.78948 0.09600
-0.27954 2.51136 0.06381
-0.82303 3.51820 0.07733
-0.50279 3.30449 0.05003
-0.86781 1.92975 0.07977
-0.26361 3.26649 0.05211
-0.88828 2.53633 0.09600
-0.90340 1.96570 0.02000
-0.24422 2.28848 0.09600
-0.01352 3.05038 0.02000
-0.59988 3.30449 0.06281
-0.33941 3.55620 0.06992
-0.59200 2.54936 0.07615
-0.73743 3.54612 0.02000
-0.71709 2.54654 0.09600
-0.36163 1.75620 0.02214
-0.70666 3.53397 0.02000
-0.41728 2.77094 0.02000
-0.26707 2.76307 0.02051
-0.39380 2.52856 0.09600
-0.24815 2.53573 0.09600
-0.69460 2.02333 0.09600
-0.34680 2.52002 0.09600
-0.26346 2.27787 0.09600
-0.90581 2.69939 0.03706
-0.90581 2.25840 0.09013
-0.77597 2.76307 0.03983
-0.86781 1.81438 0.05301
-0.65333 3.01478 0.04502
-0.88747 2.44021 0.02000
-0.48484 2.29627 0.02000
-0.00581 2.60947 0.07626
-0.15254 2.01203 0.02000
-0.15084 2.01300 0.09600
-0.00581 2.79338 0.08192
-0.04381 3.34060 0.04687
-0.54877 3.30449 0.07340
-0.10110 2.51136 0.07686
-0.71347 1.79420 0.03428
-0.04381 2.56461 0.07069
-0.86781 3.45136 0.07871
-0.48239 2.01537 0.02000
-0.88749 3.26876 0.09600
-0.88287 3.20976 0.02000
-0.25451 2.78135 0.02000
-0.86781 3.21930 0.05593
-0.86781 3.39735 0.04678
-0.18838 2.29765 0.07072
-0.23763 1.76842 0.02000
-0.43118 2.28551 0.02000
-0.51413 1.75620 0.06789
-0.04381 2.93903 0.03019
-0.28880 1.79420 0.04746
-0.07697 3.51820 0.07550
-0.83654 1.75620 0.02498
-0.19864 2.78814 0.02000
-0.86781 2.86632 0.03895
-0.01347 2.08708 0.02000
-0.54724 3.51820 0.04778
-0.90581 3.41338 0.07228
-0.40005 3.51820 0.03218
-0.04381 3.40963 0.05205
-0.56900 3.05278 0.08549
-0.29335 2.04156 0.09600
-0.04139 3.04871 0.09600
-0.66393 2.04594 0.06981
-0.04135 2.89622 0.02000
-0.86781 2.37818 0.07603
-0.88613 3.22066 0.02000
-0.00876 3.10657 0.09600
-0.90581 2.45182 0.09104
-0.15634 3.30449 0.08498
-0.04381 2.44614 0.03264
-0.34260 3.55620 0.03270
-0.37245 2.03040 0.09600
-0.46287 2.78985 0.02000
-0.00581 1.77601 0.06052
-0.75071 3.26649 0.04940
-0.11477 2.54936 0.05344
-0.19878 2.29765 0.07997
-0.86781 2.71783 0.08528
-0.00581 3.37475 0.02505
-0.00917 2.51424 0.09600
-0.82718 1.79420 0.06753
-0.78788 3.27280 0.02000
-0.47620 1.78566 0.09600
-0.01682 3.13331 0.09600
-0.52849 2.80107 0.05143
-0.35764 2.54936 0.09016
-0.09141 2.54936 0.03603
-0.90452 2.73938 0.09600
-0.08207 3.26649 0.04559
-0.02614 3.38828 0.02000
-0.89566 2.94913 0.09600
-0.90581 2.66275 0.02418
-0.85517 3.29010 0.02000
-0.58601 2.80107 0.05793
-0.04381 1.97544 0.09456
-0.75298 2.76307 0.07380
-0.12661 2.78869 0.09600
-0.12244 2.26626 0.09600
-0.04381 2.87400 0.06092
-0.13954 2.54936 0.06209
-0.33493 1.79420 0.03586
-0.11352 3.30449 0.08133
-0.25708 3.26649 0.05859
-0.04242 3.27571 0.09600
-0.31106 2.00794 0.02600
-0.71174 2.25965 0.05621
-0.87427 2.52563 0.09600
-0.90581 3.02890 0.08793
-0.84008 3.51820 0.03017
-0.35224 2.26664 0.02000
-0.88120 3.55620 0.05461
-0.00581 2.91425 0.04714
-0.04581 1.78402 0.02000
-0.46373 3.01478 0.02535
-0.38587 1.76471 0.02000
-0.33174 2.25965 0.08703
-0.04381 2.85486 0.02752
-0.78339 2.25965 0.08350
-0.90581 2.96101 0.04324
-0.88789 2.43397 0.02000
-0.50999 2.00794 0.03939
-0.37329 3.51820 0.05249
-0.04381 2.91426 0.02845
-0.02484 2.32126 0.09600
-0.46158 2.54936 0.05656
-0.90216 2.71704 0.09600
-0.71256 2.04594 0.04047
-0.86781 2.59936 0.06226
-0.90581 2.60629 0.06705
-0.04381 2.10876 0.02054
-0.86801 2.72637 0.09600
-0.06436 3.05278 0.08948
-0.00581 2.08152 0.03280
-0.84819 3.52668 0.09600
-0.52968 1.77270 0.09600
-0.11082 3.55620 0.08957
-0.86781 2.20542 0.04591
-0.71575 2.00794 0.07329
-0.90581 2.40565 0.07784
-0.69400 2.54936 0.06806
-0.05559 2.76307 0.03580
-0.87436 3.07656 0.09600
-0.88654 3.54345 0.02000
-0.11466 2.04044 0.02000
-0.03630 2.72789 0.09600
-0.74663 2.02786 0.02000
-0.14271 3.01944 0.09600
-0.24939 2.51136 0.08948
-0.80804 2.25977 0.02000
-0.89344 2.73280 0.09600
-0.40835 1.79420 0.06122
-0.90581 2.80340 0.07838
-0.86781 2.62006 0.02796
-0.88640 2.56100 0.09600
-0.00581 3.28528 0.08520
-0.06421 2.01678 0.09600
-0.88598 2.86278 0.09600
-0.87162 2.21053 0.09600
-0.10203 2.25965 0.09069
-0.65854 2.25965 0.06364
-0.86781 3.50027 0.08867
-0.11066 2.76703 0.09600
-0.70123 1.78718 0.09600
-0.85806 1.75620 0.04817
-0.90581 2.55499 0.05621
-0.48963 1.79420 0.08979
-0.79131 3.55188 0.09600
-0.83273 3.55620 0.06754
-0.51965 3.01478 0.06412
-0.03923 2.85905 0.09600
-0.47308 3.05278 0.06027
-0.90581 2.28403 0.04604
-0.07065 2.76307 0.05099
-0.80985 3.55620 0.06375
-0.53027 3.55620 0.03173
-0.90581 2.37010 0.06425
-0.69964 2.27221 0.02000
-0.16097 2.04594 0.09100
-0.84013 3.53204 0.02000
-0.37512 2.04594 0.02903
-0.64695 3.01478 0.07235
-0.00581 2.80954 0.05398
-0.00581 2.95511 0.02895
-0.04381 3.14655 0.05982
-0.66859 2.51136 0.04011
-0.19797 3.51820 0.03407
-0.24089 2.04130 0.09600
-0.02004 1.94388 0.02000
-0.02114 2.14758 0.09600
-0.04381 2.68261 0.02542
-0.81527 2.25965 0.02262
-0.77671 2.25965 0.06232
-0.54355 2.76555 0.09600
-0.31496 3.29023 0.02000
-0.02307 3.31293 0.02000
-0.83382 2.76753 0.09600
-0.40378 2.54936 0.09325
-0.74726 3.30449 0.09263
-0.00581 2.96596 0.07424
-0.13506 3.01478 0.05093
-0.26521 3.55620 0.05088
-0.03429 2.42041 0.02000
-0.90281 2.86078 0.02000
-0.88572 2.11072 0.09600
-0.00581 3.29778 0.08042
-0.00581 2.86403 0.06558
-0.40256 3.26933 0.09600
-0.66164 2.54355 0.02000
-0.87621 3.19391 0.02000
-0.37757 3.51820 0.04820
-0.63081 2.76307 0.04970
-0.27018 3.55620 0.08634
-0.90581 2.21803 0.06512
-0.62610 1.76889 0.02000
-0.40712 2.76307 0.08404
-0.04381 2.61404 0.03291
-0.69741 2.25965 0.09095
-0.07317 2.54618 0.02000
-0.89093 2.81836 0.02000
-0.33460 1.75879 0.09600
-0.90351 3.37617 0.09600
-0.72392 2.29765 0.08058
-0.69414 2.51136 0.02441
-0.40716 2.00794 0.09157
-0.52393 1.77635 0.09600
-0.00581 2.79104 0.09353
-0.00581 2.50713 0.08284
-0.79626 2.51136 0.02538
-0.27662 2.29330 0.09600
-0.27917 3.04222 0.02000
-0.83137 2.04594 0.09050
-0.79378 3.04100 0.02000
-0.05098 2.80107 0.03501
-0.01104 2.01198 0.02000
-0.90581 1.95800 0.09107
-0.45822 1.75620 0.03390
-0.10881 3.26649 0.03490
-0.04381 1.84766 0.03905
-0.03433 1.93179 0.09600
-0.86781 3.39277 0.02131
-0.18600 2.25965 0.08940
-0.07336 3.55620 0.02028
-0.86781 2.99069 0.07738
-0.23880 3.26736 0.02000
-0.04381 3.50147 0.07894
-0.90581 2.47864 0.09265
-0.10289 3.30063 0.09600
-0.40107 2.25965 0.08444
-0.32569 3.52202 0.02000
-0.56768 1.75620 0.06887
-0.86781 2.08172 0.04440
-0.05850 2.80107 0.08912
-0.90581 2.18490 0.07380
-0.00581 1.76718 0.08300
-0.81474 2.54936 0.08910
-0.00581 2.46362 0.05624
-0.69956 3.51820 0.06919
-0.90581 2.59265 0.07719
-0.74129 2.04594 0.03481
-0.13518 2.76307 0.03646
-0.82076 3.26649 0.08484
-0.15867 3.51985 0.02000
-0.46120 2.29765 0.03014
-0.02541 3.55620 0.02688
-0.79462 3.30449 0.08237
-0.41545 2.25965 0.08296
-0.69308 3.01478 0.04485
-0.13276 3.51820 0.03803
-0.86781 2.35267 0.08266
-0.81303 2.02571 0.02000
-0.04381 3.17446 0.05035
-0.02126 2.69412 0.02000
-0.15880 2.26577 0.09600
-0.33473 1.76638 0.09600
-0.22537 3.52651 0.02000
-0.21455 3.51820 0.02003
-0.86781 2.20426 0.05242
-0.00581 3.16622 0.08617
-0.35866 2.79249 0.02000
-0.50376 1.76897 0.09600
-0.62250 2.80107 0.05383
-0.49505 3.26649 0.05139
-0.02883 2.71175 0.02000
-0.59835 3.01478 0.05482
-0.63698 2.54936 0.04460
-0.90581 2.34694 0.02240
-0.14604 2.80107 0.09557
-0.51621 2.51136 0.06975
-0.68102 3.52377 0.09600
-0.44609 2.51136 0.07648
-0.73753 1.79420 0.06037
-0.85218 3.26649 0.04081
-0.90237 2.49181 0.09600
-0.00581 2.77884 0.07840
-0.02884 2.19910 0.02000
-0.90581 2.76482 0.03088
-0.80260 1.79420 0.07735
-0.49539 3.05278 0.06513
-0.34231 2.29765 0.08321
-0.57105 3.05278 0.06198
-0.90581 2.96186 0.07104
-0.48067 2.54377 0.09600
-0.22740 3.55620 0.05576
-0.35738 2.80107 0.05098
-0.83440 2.79337 0.09600
-0.40630 2.25965 0.04454
-0.47551 1.79420 0.06843
-0.64615 3.30449 0.03398
-0.46787 1.79420 0.06861
-0.00581 2.48789 0.02200
-0.00581 2.38559 0.02847
-0.01988 1.80575 0.09600
-0.63172 2.04594 0.09224
-0.04381 3.48360 0.09219
-0.87096 2.59357 0.02000
-0.03476 3.49008 0.09600
-0.90581 2.04067 0.04487
-0.47500 2.29765 0.03059
-0.78429 3.52075 0.09600
-0.66837 2.76307 0.03771
-0.05465 3.53262 0.09600
-0.08233 2.01378 0.02000
-0.27257 2.77621 0.09600
-0.08404 2.76307 0.06260
-0.04381 2.71172 0.09140
-0.36399 2.25965 0.09218
-0.72425 3.51820 0.04599
-0.71921 2.51136 0.07682
-0.19132 2.25965 0.08443
-0.14527 2.25965 0.08842
-0.16249 2.51136 0.08130
-0.33499 2.80107 0.07667
-0.74828 3.30449 0.04784
-0.86781 3.47452 0.02622
-0.90047 2.16039 0.02000
-0.34577 3.01478 0.06448
-0.21515 3.51820 0.08906
-0.74065 3.04540 0.02000
-0.53775 3.51820 0.02668
-0.72994 3.05278 0.04037
-0.80193 2.79717 0.02000
-0.52466 3.01542 0.09600
-0.74394 3.52900 0.09600
-0.23552 2.04594 0.06194
-0.80490 2.78956 0.02000
-0.14019 2.25965 0.05490
-0.72787 2.54936 0.07984
-0.01606 2.50348 0.02000
-0.20623 2.54936 0.04164
-0.46620 3.51820 0.02537
-0.57295 3.26649 0.02237
-0.63680 3.51820 0.03384
-0.04381 3.12556 0.05609
-0.79570 1.75625 0.02000
-0.34514 3.30449 0.03485
-0.86781 1.85713 0.07240
-0.86781 3.19547 0.03389
-0.89541 1.96345 0.09600
-0.35410 3.30193 0.02000
-0.58039 2.79995 0.09600
-0.52121 3.05278 0.08104
-0.11423 2.78527 0.02000
-0.08441 3.03149 0.02000
-0.90581 2.21661 0.09336
-0.38884 3.04283 0.02000
-0.02749 2.44823 0.02000
-0.86781 3.39282 0.05681
-0.87928 3.46584 0.09600
-0.33110 2.76711 0.02000
-0.03190 2.14181 0.09600
-0.00767 3.31609 0.02000
-0.20875 2.54936 0.09112
-0.10820 2.76307 0.04923
-0.10617 2.80107 0.09326
-0.64277 2.51136 0.05972
-0.04381 3.15992 0.03294
-0.00689 2.47929 0.02000
-0.09570 2.27410 0.09600
-0.00581 1.92172 0.05166
-0.20874 2.04361 0.02000
-0.26686 2.00794 0.04414
-0.80472 3.26649 0.07854
-0.26715 2.00794 0.08512
-0.03052 3.14536 0.02000
-0.18085 3.28206 0.02000
-0.51613 3.53411 0.09600
-0.65335 3.53090 0.02000
-0.37841 3.54294 0.02000
-0.80111 3.53928 0.02000
-0.18669 2.53086 0.02000
-0.23169 3.55620 0.02589
-0.75877 3.51820 0.08905
-0.33807 3.26649 0.06733
-0.88350 3.55620 0.08348
-0.28380 3.01478 0.05385
-0.71617 2.29765 0.04738
-0.00581 2.65057 0.04540
-0.90022 2.10923 0.02000
-0.86781 2.88077 0.06602
-0.43405 2.80107 0.08211
-0.04786 2.26067 0.09600
-0.22159 2.00794 0.02567
-0.00581 1.95019 0.05979
-0.28278 2.29765 0.02393
-0.26221 2.76307 0.09568
-0.09408 3.01478 0.06110
-0.88939 2.04816 0.02000
-0.00581 3.17888 0.09394
-0.55396 2.04594 0.07973
-0.69818 2.51962 0.02000
-0.35937 2.54936 0.08585
-0.90581 2.41833 0.09507
-0.39099 2.03936 0.02000
-0.90581 3.40387 0.06475
-0.83806 2.27457 0.09600
-0.45006 2.79591 0.02000
-0.02711 2.43507 0.02000
-0.14935 2.52872 0.09600
-0.50419 1.75620 0.07404
-0.55139 3.05278 0.07119
-0.70633 2.53130 0.02000
-0.49277 2.54216 0.09600
-0.03122 2.00631 0.02000
-0.03623 3.42715 0.02000
-0.31456 2.00794 0.02124
-0.73245 2.51136 0.04616
-0.37796 2.51136 0.02921
-0.81846 3.53532 0.09600
-0.17106 2.53048 0.02000
-0.04381 2.24788 0.08445
-0.48219 2.02450 0.09600
-0.04381 2.41534 0.07326
-0.86781 2.40839 0.04358
-0.33300 2.01622 0.02000
-0.52508 2.29765 0.08387
-0.82998 2.04594 0.07597
