# .PCD v0.7 - Point Cloud Data file format
VERSION 0.7
FIELDS x y z
SIZE 4 4 4
TYPE F F F
COUNT 1 1 1
WIDTH 1913
HEIGHT 1
VIEWPOINT 0 0 0 1 0 0 0
POINTS 1913
DATA ascii
-1.05695 5.30794 0.08629
-0.77310 6.59460 0.09600
-1.32354 5.34594 0.08824
-0.66878 5.81136 0.03297
-0.48731 6.02975 0.02000
-0.76170 5.55965 0.03548
-0.50581 5.58101 0.09600
-1.36482 5.21366 0.02000
-0.83317 5.08699 0.09600
-1.33432 6.52885 0.02000
-1.37081 5.07960 0.03764
-1.35466 6.08453 0.09600
-0.60967 6.60449 0.08132
-1.16579 6.81820 0.02870
-0.48826 5.34905 0.02000
-1.25897 6.60449 0.05288
-0.52317 5.05620 0.07946
-1.00785 5.09420 0.04944
-1.02051 5.84936 0.08423
-1.37081 6.25927 0.04734
-0.72179 6.10107 0.07246
-1.19265 6.31478 0.07554
-1.16254 6.32895 0.02000
-0.88998 5.81935 0.02000
-0.90830 6.06307 0.06458
-0.95710 5.55965 0.04836
-1.15569 6.81820 0.06850
-0.47081 5.50625 0.05924
-0.58484 6.31478 0.03760
-0.59626 5.30794 0.06064
-0.71884 6.81820 0.08170
-1.32897 5.84270 0.02000
-1.03422 6.81820 0.06019
-0.50881 6.53337 0.09121
-1.33281 5.41662 0.08399
-1.00787 6.32783 0.09600
-1.05994 5.30794 0.06748
-0.50881 5.68869 0.03021
-1.00140 6.35278 0.03012
-0.66754 6.60449 0.07008
-1.15208 6.06307 0.08861
-1.04076 5.34594 0.05014
-1.23601 6.56649 0.04653
-0.47081 5.63840 0.08531
-1.02030 6.08207 0.09600
-0.61724 5.34594 0.08444
-0.95875 6.10107 0.05430
-1.37081 5.42413 0.03719
-1.16855 6.08545 0.09600
-0.50639 6.25077 0.09600
-1.25934 5.81136 0.02029
-1.37081 5.08885 0.09308
-0.52695 6.60449 0.03936
-1.27686 6.60449 0.07413
-0.96446 5.09420 0.06028
-0.97498 5.07678 0.09600
-0.81182 6.56649 0.03325
-0.99896 5.55965 0.05759
-1.36615 6.51764 0.09600
-1.16278 5.84936 0.04663
-0.47989 6.27433 0.02000
-1.15163 5.05620 0.06120
-1.26762 6.35214 0.09600
-1.33675 6.34865 0.02000
-1.28280 6.31478 0.09449
-0.47081 5.74859 0.04449
-0.49263 5.05620 0.03370
-1.37081 6.52641 0.04207
-0.50301 5.47016 0.09600
-0.47081 6.75378 0.07810
-0.67590 6.60449 0.06573
-1.19185 6.56649 0.06858
-0.93155 6.06307 0.06493
-1.21892 5.06725 0.02000
-0.49797 5.65270 0.09600
-1.34670 6.12827 0.02000
-0.82761 6.06307 0.08167
-1.34458 5.41611 0.09600
-0.48526 6.48009 0.02000
-0.68951 6.83205 0.02000
-0.59008 5.84936 0.02384
-1.07490 5.30794 0.08551
-0.95145 6.31478 0.08165
-0.47081 5.57350 0.05274
-0.50881 5.43921 0.02155
-0.50881 6.05541 0.05614
-0.47081 6.15931 0.02298
-0.76333 5.84936 0.09197
-0.84790 6.85620 0.07106
-0.88845 5.59765 0.07214
-0.57150 6.31478 0.08589
-0.50881 6.22286 0.07658
-1.33281 5.44458 0.05276
-1.27464 6.60449 0.08369
-1.32594 6.56649 0.09447
-1.35285 5.68404 0.09600
-1.33904 5.88466 0.02000
-1.36488 6.85620 0.06057
-0.58440 6.59077 0.09600
-1.20050 5.84936 0.02507
-0.50881 5.35499 0.04639
-0.75598 6.31478 0.03925
-1.02328 5.84936 0.02609
-1.10583 6.85620 0.03777
-0.97607 6.82583 0.02000
-0.60199 6.59215 0.02000
-1.23751 6.81820 0.04169
-1.13835 6.82517 0.02000
-1.27935 5.83333 0.09600
-1.13277 6.84753 0.02000
-0.78970 6.10107 0.04770
-0.94875 6.60449 0.09302
-1.33281 6.28146 0.08013
-1.33273 5.84936 0.06667
-0.97314 5.07648 0.09600
-1.18579 5.81583 0.09600
-0.93344 6.83829 0.09600
-0.85226 6.10107 0.07364
-0.79775 5.83899 0.09600
-1.37081 5.93784 0.03256
-1.33281 6.43438 0.06248
-0.77712 5.05620 0.07730
-0.50881 6.30353 0.03517
-1.37081 6.44092 0.06913
-0.82660 5.59765 0.05401
-1.09695 6.35278 0.08461
-1.02059 6.56649 0.08765
-1.29735 5.55965 0.03505
-0.49368 6.81514 0.09600
-1.37081 5.66101 0.02254
-1.09700 5.09420 0.02848
-0.76986 5.09420 0.03193
-0.50881 5.73594 0.05024
-0.82891 5.58125 0.02000
-0.78609 6.31478 0.07698
-0.60002 5.09420 0.07038
-0.54981 6.35278 0.04121
-0.47081 6.17498 0.09204
-0.63422 5.59765 0.05394
-1.37081 6.33601 0.06701
-1.17274 5.59765 0.06201
-0.63666 6.60449 0.03932
-1.00375 5.56317 0.02000
-0.82738 6.60426 0.02000
-0.92505 5.84936 0.05544
-1.34658 6.82056 0.09600
-1.36391 5.67572 0.09600
-0.50881 5.47317 0.03816
-0.47958 5.24488 0.02000
-0.88657 6.56649 0.03083
-0.51194 5.59765 0.07083
-1.17701 5.59765 0.09197
-0.50671 6.34720 0.02000
-1.33281 5.39102 0.06752
-0.79244 6.34980 0.09600
-1.20035 5.84936 0.09452
-1.23681 5.84936 0.09278
-0.49089 6.46399 0.02000
-1.12397 6.35278 0.04420
-0.70326 5.32664 0.02000
-1.37081 6.28200 0.03332
-1.15275 5.05620 0.03465
-1.37081 5.24164 0.09299
-0.74195 6.85620 0.08538
-0.69730 6.85620 0.09360
-0.47826 6.67353 0.02000
-0.47081 6.01388 0.07358
-1.37081 5.21710 0.05472
-1.34021 5.10705 0.09600
-0.92149 5.34594 0.06688
-0.98090 6.31478 0.08004
-1.33719 5.28404 0.02000
-1.02359 5.05744 0.02000
-0.49096 6.37684 0.09600
-0.87508 6.60449 0.08446
-0.56993 6.35278 0.07423
-1.36215 5.35308 0.02000
-1.11721 6.56649 0.03707
-0.50881 6.68380 0.06360
-0.47081 6.19594 0.04896
-1.33281 5.63206 0.04900
-0.56596 5.59765 0.03782
-1.16652 6.60449 0.06480
-0.48303 6.65770 0.02000
-0.88521 6.31478 0.04299
-1.33281 5.29169 0.02846
-1.14902 6.56649 0.08124
-0.64109 6.06307 0.05538
-1.21731 6.57441 0.09600
-1.37081 5.91052 0.03991
-1.28908 5.34594 0.06053
-1.37081 5.92701 0.07842
-0.50881 6.20175 0.03735
-0.48151 5.92800 0.09600
-0.54216 6.84834 0.09600
-0.87780 5.30794 0.04842
-0.50881 6.48616 0.05620
-1.04794 6.32701 0.09600
-0.64220 5.59765 0.07551
-0.55609 5.31587 0.02000
-0.51621 6.84389 0.02000
-0.59193 5.83421 0.02000
-1.06771 6.06307 0.02434
-1.33281 5.79100 0.03359
-1.31344 5.55965 0.07386
-0.47919 6.07331 0.09600
-0.50881 5.23335 0.02555
-0.56473 5.06953 0.09600
-1.33281 5.29077 0.04875
-1.37081 5.10633 0.02281
-0.58204 5.81510 0.02000
-0.72829 5.82411 0.02000
-0.47081 5.11013 0.04076
-1.33281 5.19639 0.05545
-0.54917 6.82620 0.09600
-0.47081 6.45023 0.05402
-0.80667 5.33556 0.09600
-1.36697 5.32679 0.09600
-1.23869 6.81820 0.08220
-0.51149 5.34594 0.02709
-0.95550 6.85620 0.02232
-1.19802 5.55965 0.04130
-0.50020 6.09113 0.02000
-0.69267 5.82016 0.02000
-0.47844 6.27361 0.02000
-0.74874 5.55965 0.07175
-1.15864 6.56649 0.08781
-0.47081 5.86620 0.03975
-0.50881 5.17924 0.08136
-0.47081 6.18927 0.05875
-1.09621 5.09361 0.02000
-1.37081 6.80523 0.03819
-0.74282 6.06307 0.09248
-0.51649 6.31478 0.07045
-0.48067 5.63249 0.09600
-0.65932 6.31478 0.05335
-0.50881 5.76763 0.03901
-0.73867 6.31478 0.08966
-0.75083 5.55965 0.03780
-0.81718 5.05620 0.02372
-1.37038 5.08605 0.02000
-0.77295 5.81136 0.03617
-0.80424 5.09420 0.04652
-1.16068 6.06307 0.02994
-1.01123 5.59689 0.09600
-1.16100 5.81136 0.05250
-1.09130 6.56649 0.06523
-0.88551 6.85620 0.03905
-0.72348 6.60449 0.03418
-1.18009 5.57050 0.09600
-0.50881 5.89092 0.07013
-0.55570 5.84936 0.06795
-1.36551 6.20618 0.02000
-0.81082 5.34538 0.09600
-0.87348 6.60449 0.06837
-1.30877 5.06248 0.09600
-1.25815 6.06307 0.03650
-0.50881 5.71914 0.03662
-0.50230 5.13493 0.09600
-1.31533 6.10107 0.06713
-0.50881 6.01326 0.02415
-0.56165 6.60449 0.02601
-1.27659 6.10107 0.06778
-1.19243 5.84936 0.03021
-1.13686 5.30794 0.09486
-1.27201 5.08473 0.09600
-0.50867 5.05620 0.04483
-0.91394 6.85620 0.04889
-1.37081 5.12199 0.02576
-0.50198 6.60143 0.09600
-0.50881 5.14660 0.05548
-0.62401 5.55965 0.08964
-0.47081 6.36062 0.02223
-1.31967 6.09981 0.02000
-0.47081 5.97190 0.07332
-1.37081 5.73275 0.05353
-0.91370 5.05620 0.09456
-0.81861 5.81136 0.05219
-0.73395 5.82378 0.02000
-0.50881 5.76402 0.06484
-1.33281 6.54869 0.02722
-0.89534 5.84936 0.03579
-0.47081 5.69823 0.06454
-0.53061 5.81136 0.06519
-0.70862 5.59765 0.03294
-0.96868 6.81820 0.08061
-0.90148 5.81136 0.04795
-0.52552 5.81136 0.02484
-1.37081 6.63740 0.09022
-0.59387 6.57359 0.02000
-0.65476 6.31478 0.05333
-0.47081 5.71248 0.03788
-1.36792 5.18295 0.09600
-0.91194 5.81440 0.09600
-0.94033 6.56649 0.06099
-1.28950 6.83329 0.09600
-1.11060 6.10107 0.03969
-0.92465 6.34536 0.02000
-0.47081 5.90123 0.08074
-0.94275 6.60449 0.02479
-0.47081 5.38377 0.03584
-0.54525 5.30794 0.09438
-0.74350 6.06307 0.09341
-1.37081 6.28057 0.06883
-0.71129 5.09420 0.08835
-0.90529 5.32176 0.02000
-0.95418 5.30794 0.06298
-0.62614 6.06307 0.09272
-0.79744 5.84936 0.08452
-1.16444 6.85620 0.06640
-0.77982 5.59765 0.08843
-1.30754 6.08770 0.02000
-1.00224 5.06341 0.02000
-0.50881 5.96944 0.02338
-0.74187 6.06307 0.09008
-1.36661 5.62173 0.02000
-0.47081 5.76148 0.07721
-1.11892 6.81820 0.03821
-1.37081 6.70415 0.05590
-1.09989 5.30794 0.08488
-0.47081 5.51833 0.07761
-1.27148 6.08016 0.02000
-0.96857 6.09103 0.09600
-1.33466 6.61130 0.09600
-0.82692 5.59355 0.09600
-1.05062 6.31601 0.09600
-0.47081 6.34422 0.09280
-1.20354 5.83729 0.02000
-0.94743 5.34594 0.04876
-0.47081 5.35512 0.02954
-0.94929 6.35278 0.07671
-1.29750 5.81136 0.03429
-0.72455 5.55965 0.06938
-1.14408 5.05620 0.05808
-0.54631 6.81820 0.04590
-0.51830 6.81820 0.06519
-1.37081 6.18369 0.09262
-0.50802 5.35869 0.02000
-0.88090 5.81136 0.07736
-1.31603 5.81772 0.02000
-1.28745 5.09420 0.07512
-0.72008 5.07877 0.02000
-0.88320 6.06307 0.07104
-0.62534 6.84484 0.02000
-0.50881 6.81722 0.03409
-1.25094 6.60449 0.06242
-0.47495 5.26305 0.02000
-0.50821 5.14761 0.09600
-1.18789 5.08787 0.02000
-0.61132 6.60449 0.05820
-0.81412 5.84243 0.02000
-0.66195 6.10107 0.05033
-0.50832 5.08673 0.02000
-1.08253 5.34594 0.03916
-1.31862 6.35278 0.06525
-0.47081 5.64184 0.05844
-1.06416 5.84936 0.05055
-1.04198 5.81136 0.02615
-0.55870 5.58925 0.09600
-0.96316 6.10107 0.03782
-0.47090 6.47733 0.02000
-1.19476 6.82328 0.09600
-1.09830 5.55965 0.08532
-0.94632 6.06307 0.03983
-1.05730 5.31316 0.02000
-1.34347 5.99472 0.02000
-0.70348 6.60449 0.07928
-0.63820 6.81820 0.03525
-0.63337 5.05620 0.03483
-0.80938 5.07009 0.02000
-1.34399 5.12940 0.09600
-1.06603 6.85620 0.04311
-1.28146 5.59765 0.08339
-0.84125 5.34594 0.04340
-1.34391 6.83166 0.09600
-0.50551 6.62045 0.02000
-0.47081 6.31916 0.08336
-1.35353 5.51310 0.02000
-0.53187 5.55965 0.08619
-1.37081 6.38334 0.05296
-1.23235 5.59765 0.05660
-1.09923 5.84936 0.02019
-1.00664 5.09403 0.09600
-0.50881 5.73447 0.04636
-0.74189 6.60449 0.05377
-1.26458 6.57506 0.09600
-1.33281 6.47582 0.03519
-0.71261 6.56649 0.06642
-0.96283 6.59971 0.09600
-0.86017 6.85464 0.09600
-0.82339 6.10107 0.07042
-1.37081 5.28178 0.08480
-0.50881 6.23835 0.03062
-0.47147 5.17944 0.09600
-0.86387 5.32780 0.09600
-0.47081 5.53154 0.03071
-0.68467 5.34594 0.04128
-0.47081 5.95544 0.03800
-1.30041 6.06307 0.03035
-0.87820 6.31478 0.07447
-1.33281 5.17932 0.06537
-1.33281 6.64282 0.07348
-1.22890 6.09755 0.09600
-0.65434 6.06307 0.06446
-1.37081 6.56077 0.02565
-0.47091 5.41215 0.09600
-1.19236 5.30794 0.04462
-1.37081 6.22817 0.08005
-1.35458 6.23584 0.02000
-0.49131 5.75041 0.09600
-0.92030 5.06100 0.02000
-0.86598 5.05620 0.03411
-0.48819 5.35194 0.09600
-1.33281 5.36178 0.04451
-0.88294 6.59336 0.02000
-0.94452 6.56737 0.09600
-0.74755 5.07063 0.09600
-1.33281 5.43198 0.04049
-1.33281 5.16616 0.07028
-0.47081 5.83888 0.04114
-0.48425 6.39491 0.02000
-1.15796 6.56649 0.08799
-0.48689 6.77708 0.02000
-1.33281 5.60603 0.04847
-1.28804 6.57044 0.02000
-0.47081 5.14473 0.07965
-0.86099 5.59765 0.03349
-1.09817 6.31875 0.09600
-0.77401 5.84936 0.02283
-1.00819 6.33096 0.02000
-1.37081 6.10240 0.02950
-0.54884 6.81820 0.06059
-1.37081 5.19763 0.06272
-0.71930 5.05620 0.08605
-0.47081 5.58165 0.02806
-0.83900 6.83646 0.02000
-1.19504 6.35278 0.05632
-1.14854 6.32785 0.09600
-0.50483 5.66218 0.02000
-0.50881 5.72187 0.07068
-0.50399 5.86422 0.09600
-0.66447 5.84694 0.09600
-0.55888 6.06307 0.03006
-0.54169 5.57913 0.02000
-1.15730 5.57376 0.09600
-1.14744 5.58026 0.02000
-1.37081 6.44686 0.07642
-0.50881 5.66337 0.02444
-1.35106 5.82310 0.02000
-0.79597 6.35278 0.03639
-1.08085 6.31478 0.07523
-0.66120 5.30794 0.09298
-1.37081 6.63575 0.06681
-0.47081 6.49947 0.02227
-1.00959 5.59765 0.03860
-1.19815 5.59765 0.05191
-0.50881 5.72916 0.09247
-1.25682 6.35278 0.02712
-1.03981 6.84465 0.09600
-0.60776 5.84936 0.03615
-0.49858 6.41734 0.09600
-0.96906 6.31478 0.09079
-0.47081 6.23216 0.06101
-1.00212 6.06307 0.07932
-1.36274 6.74351 0.02000
-1.05693 5.07766 0.02000
-1.34494 6.51901 0.02000
-0.99389 6.31478 0.06338
-0.47081 5.33520 0.06127
-1.26930 6.56649 0.04763
-0.50881 6.47905 0.02693
-1.16822 5.08101 0.02000
-0.50881 6.61192 0.04736
-1.03866 5.34594 0.02839
-1.31895 6.85620 0.05188
-0.50881 5.73919 0.09076
-0.91051 6.35278 0.04422
-0.93975 6.85620 0.04939
-0.56150 5.84936 0.02461
-0.59561 5.59765 0.06996
-0.47081 5.46626 0.02836
-0.48173 5.95403 0.02000
-0.83319 5.34594 0.08711
-0.76230 6.60449 0.03900
-0.94440 5.84936 0.08343
-0.86668 5.08240 0.09600
-0.93365 6.32798 0.02000
-1.06644 6.56649 0.02829
-1.33281 6.70973 0.06515
-0.92022 5.09420 0.07789
-0.95461 5.58912 0.09600
-0.47081 6.78606 0.06375
-1.33281 5.95366 0.03768
-0.50881 5.28411 0.08158
-0.66391 6.60449 0.04465
-0.51366 5.33284 0.02000
-0.94147 6.81820 0.09300
-0.78135 5.30794 0.07618
-1.26189 6.57198 0.09600
-0.47081 5.63051 0.04988
-0.93192 6.31478 0.04513
-0.52551 5.55965 0.04780
-0.58871 5.81136 0.02295
-0.50881 5.74056 0.06043
-1.15797 6.81820 0.04149
-0.90015 5.82533 0.09600
-1.36269 6.39735 0.09600
-1.12785 5.30794 0.07393
-0.47471 5.18211 0.02000
-1.33405 6.63764 0.02000
-0.49342 6.69278 0.02000
-1.35271 6.28636 0.02000
-0.64163 6.31478 0.05468
-0.47081 5.49241 0.08060
-1.04424 5.55965 0.08879
-1.09473 5.84936 0.08447
-1.00553 5.34248 0.09600
-0.84142 5.59765 0.09184
-1.20936 6.81820 0.02456
-1.37081 6.57353 0.05413
-0.64838 5.34594 0.02067
-1.15685 6.81820 0.08226
-0.70815 6.85620 0.02156
-0.50881 5.11510 0.08915
-0.48311 6.85620 0.02126
-0.56569 6.10107 0.02832
-0.52239 6.10107 0.06282
-0.49023 5.18428 0.09600
-1.29258 5.81136 0.05368
-0.48736 6.19028 0.09600
-0.90388 5.33351 0.09600
-1.37081 5.60704 0.06329
-1.19737 5.83781 0.02000
-0.62845 6.10107 0.05155
-0.74631 5.59259 0.09600
-0.96054 6.56649 0.02394
-1.26284 5.58642 0.02000
-0.51079 6.06307 0.08443
-0.60269 6.57467 0.02000
-1.19198 5.55965 0.09326
-1.33780 5.82616 0.02000
-0.72956 6.31478 0.02747
-1.06513 6.56649 0.05071
-1.19717 6.56649 0.04765
-0.67054 6.32751 0.09600
-0.80351 5.08970 0.09600
-1.21022 5.32435 0.02000
-1.32549 5.32194 0.02000
-0.76408 5.30794 0.04964
-0.84407 6.31478 0.02060
-0.50766 6.35875 0.02000
-0.56872 5.55965 0.09358
-0.57633 5.09125 0.02000
-0.63953 5.57788 0.09600
-0.59676 6.10107 0.06486
-0.74681 6.35278 0.05610
-1.37081 5.07466 0.06271
-1.02900 6.09972 0.02000
-0.74518 5.55965 0.05968
-1.29391 6.06307 0.09447
-0.74200 6.09736 0.09600
-1.33281 5.22643 0.09405
-0.90922 6.35278 0.02712
-1.33281 5.11028 0.04251
-0.56792 6.31478 0.05811
-0.84013 6.85620 0.05426
-1.17488 5.81136 0.06457
-0.78904 6.85620 0.07838
-0.47081 6.61448 0.07866
-1.06401 6.31478 0.03149
-0.65819 6.10107 0.07964
-0.51341 5.81136 0.04113
-1.22315 5.05620 0.04257
-1.37081 6.41442 0.07947
-0.47081 6.10620 0.04712
-1.13414 6.81820 0.04942
-0.50881 5.27471 0.06874
-0.80529 5.84936 0.09587
-0.57504 5.09420 0.06816
-0.79467 6.85082 0.09600
-0.90892 5.07247 0.02000
-0.83077 6.10107 0.07536
-1.19307 5.84936 0.03708
-0.49826 5.32381 0.09600
-1.13107 6.06307 0.02867
-1.37081 5.12286 0.08458
-0.81136 5.57681 0.09600
-1.24709 6.60449 0.02414
-0.76965 6.83045 0.02000
-0.89188 6.58595 0.09600
-0.47852 6.50836 0.02000
-0.92542 5.84936 0.09403
-1.11100 5.84936 0.09310
-1.09955 5.09420 0.02747
-0.89454 5.30794 0.06614
-1.01360 5.84936 0.02537
-1.06588 6.56649 0.05004
-0.92540 6.31478 0.05611
-0.47813 5.16059 0.09600
-0.47081 6.22556 0.08753
-1.24107 6.56649 0.03851
-1.13341 6.31478 0.03097
-1.33281 5.22215 0.03508
-1.06181 6.31478 0.08485
-0.70964 6.10107 0.09156
-0.64183 6.56649 0.07266
-0.47914 6.44033 0.02000
-0.80151 5.84936 0.02772
-1.08562 5.57483 0.02000
-0.47081 6.05900 0.05922
-1.36270 5.05620 0.08678
-0.47741 5.09242 0.09600
-0.50881 6.19109 0.04994
-0.99915 5.07620 0.09600
-0.47081 5.39634 0.07515
-0.49840 5.66156 0.02000
-0.73615 5.05620 0.09483
-0.47081 6.40626 0.04429
-0.77694 5.84936 0.09290
-0.47081 5.47628 0.06937
-1.09796 6.06307 0.06026
-0.90020 6.84781 0.02000
-0.57528 5.81136 0.05091
-1.23120 5.55965 0.04260
-1.15116 5.31988 0.02000
-0.92992 5.05620 0.05312
-1.37081 6.06733 0.07148
-1.33281 6.30431 0.04494
-0.47081 6.68321 0.04583
-0.56699 5.81828 0.09600
-0.47081 6.49513 0.08937
-1.17015 6.83340 0.02000
-1.35067 5.31484 0.09600
-1.36568 6.75268 0.02000
-0.50881 6.50303 0.08877
-0.66617 5.82086 0.09600
-1.37081 5.73257 0.05688
-0.50881 6.39698 0.03184
-1.37081 5.25680 0.04764
-1.33281 6.17726 0.07378
-0.47081 5.56506 0.04139
-0.51936 5.09232 0.09600
-0.48576 5.33408 0.09600
-0.93280 6.59537 0.09600
-1.11137 5.09420 0.02030
-0.83068 6.06307 0.05688
-0.50040 6.52102 0.02000
-0.97153 5.81136 0.08300
-0.47081 6.42837 0.06457
-0.65322 6.57108 0.02000
-0.83557 6.57152 0.09600
-1.22045 5.83119 0.09600
-0.58123 5.55965 0.02967
-0.47081 6.15467 0.06810
-0.70094 5.55965 0.02563
-0.74617 6.06307 0.09290
-0.58768 6.56905 0.02000
-1.05380 5.30794 0.05879
-0.55488 5.59765 0.08139
-0.65108 5.59765 0.08610
-1.00692 6.56649 0.09515
-0.74600 6.06307 0.08581
-0.94865 5.83048 0.09600
-1.19814 5.59765 0.05797
-1.35809 5.21501 0.02000
-0.92623 5.05620 0.08783
-1.19866 6.60449 0.04647
-1.33281 5.59920 0.02278
-1.06779 6.56649 0.07086
-0.97270 6.31478 0.08668
-1.29608 6.31478 0.04607
-1.37081 6.49129 0.07712
-0.93116 6.60449 0.09241
-0.84733 6.85620 0.07853
-1.10666 6.06307 0.02339
-0.49675 5.92317 0.02000
-0.71345 5.59765 0.06923
-0.50881 5.47499 0.07956
-0.47672 6.48065 0.02000
-0.81287 5.34273 0.02000
-0.48531 6.85620 0.04361
-0.85358 5.31544 0.02000
-0.89534 6.10107 0.07183
-1.29590 5.34594 0.06810
-0.47081 5.59084 0.03191
-1.33799 6.39236 0.09600
-0.70898 5.84936 0.05573
-0.71468 6.60449 0.03835
-1.13951 5.05620 0.08366
-0.59047 5.09420 0.09206
-0.49657 5.22346 0.02000
-0.86160 6.06307 0.09378
-0.50881 5.39627 0.03280
-0.77351 5.59147 0.09600
-1.26558 5.81136 0.09105
-1.28682 6.59283 0.02000
-1.01794 6.81820 0.06865
-0.47454 5.46096 0.09600
-1.28482 5.30794 0.03276
-0.58491 6.33137 0.02000
-1.36498 5.23261 0.02000
-0.76446 5.31321 0.02000
-1.13413 5.59765 0.08147
-1.25405 6.56649 0.04115
-1.04840 6.10107 0.06529
-0.73808 5.81136 0.06150
-0.50881 5.21556 0.07670
-0.72789 6.31478 0.02593
-1.10941 5.31083 0.02000
-0.50881 5.19074 0.05194
-1.20084 6.60449 0.03066
-0.58577 6.06307 0.02145
-1.33281 6.30531 0.04534
-0.48565 6.24099 0.02000
-0.62384 6.07759 0.09600
-0.67944 5.30901 0.09600
-0.55825 6.85620 0.08500
-1.21800 5.55965 0.06266
-0.62381 6.10107 0.05345
-1.00223 5.59662 0.09600
-1.36443 6.29381 0.09600
-1.01594 6.31478 0.06626
-1.33281 5.75705 0.06173
-0.74367 6.56649 0.09167
-0.98377 5.57189 0.02000
-1.37081 5.20413 0.07586
-0.92960 5.56698 0.09600
-0.97262 6.31478 0.03733
-1.33281 5.39389 0.05157
-0.63105 5.55965 0.07999
-0.47081 6.75567 0.05322
-1.34974 5.55898 0.02000
-0.77898 6.09162 0.09600
-1.16588 6.08948 0.09600
-0.74454 5.81136 0.06381
-1.28803 6.81820 0.07733
-0.96779 6.60449 0.05003
-1.33281 5.22975 0.07977
-0.72861 6.56649 0.05211
-1.35328 5.83633 0.09600
-1.36840 5.26570 0.02000
-0.70922 5.58848 0.09600
-0.47852 6.35038 0.02000
-1.06488 6.60449 0.06281
-0.80441 6.85620 0.06992
-1.05700 5.84936 0.07615
-1.20243 6.84612 0.02000
-1.18209 5.84654 0.09600
-0.82663 5.05620 0.02214
-1.17166 6.83397 0.02000
-0.88228 6.07094 0.02000
-0.73207 6.06307 0.02051
-0.85880 5.82856 0.09600
-0.71315 5.83573 0.09600
-1.15960 5.32333 0.09600
-0.81180 5.82002 0.09600
-0.72846 5.57787 0.09600
-1.37081 5.99939 0.03706
-1.37081 5.55840 0.09013
-1.24097 6.06307 0.03983
-1.33281 5.11438 0.05301
-1.11833 6.31478 0.04502
-1.35247 5.74021 0.02000
-0.94984 5.59627 0.02000
-0.47081 5.90947 0.07626
-0.61754 5.31203 0.02000
-0.61584 5.31300 0.09600
-0.47081 6.09338 0.08192
-0.50881 6.64060 0.04687
-1.01377 6.60449 0.07340
-0.56610 5.81136 0.07686
-1.17847 5.09420 0.03428
-0.50881 5.86461 0.07069
-1.33281 6.75136 0.07871
-0.94739 5.31537 0.02000
-1.35249 6.56876 0.09600
-1.34787 6.50977 0.02000
-0.71951 6.08135 0.02000
-1.33281 6.51930 0.05593
-1.33281 6.69735 0.04678
-0.65338 5.59765 0.07072
-0.70263 5.06842 0.02000
-0.89618 5.58551 0.02000
-0.97913 5.05620 0.06789
-0.50881 6.23903 0.03019
-0.75380 5.09420 0.04746
-0.54197 6.81820 0.07550
-1.30154 5.05620 0.02498
-0.66364 6.08814 0.02000
-1.33281 6.16632 0.03895
-0.47847 5.38708 0.02000
-1.01224 6.81820 0.04778
-1.37081 6.71338 0.07228
-0.86505 6.81820 0.03218
-0.50881 6.70963 0.05205
-1.03400 6.35278 0.08549
-0.75835 5.34157 0.09600
-0.50639 6.34871 0.09600
-1.12893 5.34594 0.06981
-0.50635 6.19622 0.02000
-1.33281 5.67818 0.07603
-1.35113 6.52066 0.02000
-0.47376 6.40657 0.09600
-1.37081 5.75182 0.09104
-0.62134 6.60449 0.08498
-0.50881 5.74614 0.03264
-0.80760 6.85620 0.03270
-0.83745 5.33040 0.09600
-0.92787 6.08985 0.02000
-0.47081 5.07601 0.06052
-1.21571 6.56649 0.04940
-0.57977 5.84936 0.05344
-0.66378 5.59765 0.07997
-1.33281 6.01783 0.08528
-0.47081 6.67475 0.02505
-0.47417 5.81424 0.09600
-1.29218 5.09420 0.06753
-1.25288 6.57280 0.02000
-0.94120 5.08566 0.09600
-0.48182 6.43331 0.09600
-0.99349 6.10107 0.05143
-0.82264 5.84936 0.09016
-0.55641 5.84936 0.03603
-1.36952 6.03938 0.09600
-0.54707 6.56649 0.04559
-0.49114 6.68828 0.02000
-1.36066 6.24913 0.09600
-1.37081 5.96275 0.02418
-1.32017 6.59010 0.02000
-1.05101 6.10107 0.05793
-0.50881 5.27544 0.09456
-1.21798 6.06307 0.07380
-0.59161 6.08869 0.09600
-0.58744 5.56626 0.09600
-0.50881 6.17400 0.06092
-0.60454 5.84936 0.06209
-0.79993 5.09420 0.03586
-0.57852 6.60449 0.08133
-0.72208 6.56649 0.05859
-0.50742 6.57571 0.09600
-0.77606 5.30794 0.02600
-1.17674 5.55965 0.05621
-1.33927 5.82563 0.09600
-1.37081 6.32890 0.08793
-1.30508 6.81820 0.03017
-0.81724 5.56664 0.02000
-1.34620 6.85620 0.05461
-0.47081 6.21425 0.04714
-0.51081 5.08402 0.02000
-0.92873 6.31478 0.02535
-0.85087 5.06471 0.02000
-0.79674 5.55965 0.08703
-0.50881 6.15486 0.02752
-1.24839 5.55965 0.08350
-1.37081 6.26101 0.04324
-1.35289 5.73397 0.02000
-0.97499 5.30794 0.03939
-0.83829 6.81820 0.05249
-0.50881 6.21426 0.02845
-0.48984 5.62126 0.09600
-0.92658 5.84936 0.05656
-1.36716 6.01704 0.09600
-1.17756 5.34594 0.04047
-1.33281 5.89936 0.06226
-1.37081 5.90629 0.06705
-0.50881 5.40876 0.02054
-1.33301 6.02637 0.09600
-0.52936 6.35278 0.08948
-0.47081 5.38152 0.03280
-1.31319 6.82668 0.09600
-0.99468 5.07270 0.09600
-0.57582 6.85620 0.08957
-1.33281 5.50542 0.04591
-1.18075 5.30794 0.07329
-1.37081 5.70565 0.07784
-1.15900 5.84936 0.06806
-0.52059 6.06307 0.03580
-1.33936 6.37656 0.09600
-1.35154 6.84345 0.02000
-0.57966 5.34044 0.02000
-0.50130 6.02789 0.09600
-1.21163 5.32787 0.02000
-0.60771 6.31944 0.09600
-0.71439 5.81136 0.08948
-1.27304 5.55977 0.02000
-1.35844 6.03280 0.09600
-0.87335 5.09420 0.06122
-1.37081 6.10340 0.07838
-1.33281 5.92006 0.02796
-1.35140 5.86100 0.09600
-0.47081 6.58528 0.08520
-0.52921 5.31678 0.09600
-1.35098 6.16278 0.09600
-1.33662 5.51053 0.09600
-0.56703 5.55965 0.09069
-1.12354 5.55965 0.06364
-1.33281 6.80027 0.08867
-0.57566 6.06703 0.09600
-1.16623 5.08718 0.09600
-1.32306 5.05620 0.04817
-1.37081 5.85499 0.05621
-0.95463 5.09420 0.08979
-1.25631 6.85188 0.09600
-1.29773 6.85620 0.06754
-0.98465 6.31478 0.06412
-0.50423 6.15905 0.09600
-0.93808 6.35278 0.06027
-1.37081 5.58403 0.04604
-0.53565 6.06307 0.05099
-1.27485 6.85620 0.06375
-0.99527 6.85620 0.03173
-1.37081 5.67010 0.06425
-1.16464 5.57221 0.02000
-0.62597 5.34594 0.09100
-1.30513 6.83204 0.02000
-0.84012 5.34594 0.02903
-1.11195 6.31478 0.07235
-0.47081 6.10954 0.05398
-0.47081 6.25511 0.02895
-0.50881 6.44655 0.05982
-1.13358 5.81136 0.04011
-0.66297 6.81820 0.03407
-0.70589 5.34130 0.09600
-0.48504 5.24388 0.02000
-0.48614 5.44758 0.09600
-0.50881 5.98261 0.02542
-1.28027 5.55965 0.02262
-1.24171 5.55965 0.06232
-1.00855 6.06555 0.09600
-0.77996 6.59023 0.02000
-0.48807 6.61293 0.02000
-1.29882 6.06753 0.09600
-0.86878 5.84936 0.09325
-1.21226 6.60449 0.09263
-0.47081 6.26596 0.07424
-0.60006 6.31478 0.05093
-0.73021 6.85620 0.05088
-0.49929 5.72041 0.02000
-1.36781 6.16078 0.02000
-1.35072 5.41072 0.09600
-0.47081 6.59778 0.08042
-0.47081 6.16403 0.06558
-0.86756 6.56933 0.09600
-1.12664 5.84355 0.02000
-1.34121 6.49391 0.02000
-0.84257 6.81820 0.04820
-1.09581 6.06307 0.04970
-0.73518 6.85620 0.08634
-1.37081 5.51803 0.06512
-1.09110 5.06889 0.02000
-0.87212 6.06307 0.08404
-0.50881 5.91404 0.03291
-1.16241 5.55965 0.09095
-0.53817 5.84617 0.02000
-1.35593 6.11836 0.02000
-0.79960 5.05879 0.09600
-1.36851 6.67617 0.09600
-1.18892 5.59765 0.08058
-1.15914 5.81136 0.02441
-0.87216 5.30794 0.09157
-0.98893 5.07635 0.09600
-0.47081 6.09104 0.09353
-0.47081 5.80713 0.08284
-1.26126 5.81136 0.02538
-0.74162 5.59330 0.09600
-0.74417 6.34222 0.02000
-1.29637 5.34594 0.09050
-1.25878 6.34100 0.02000
-0.51598 6.10107 0.03501
-0.47604 5.31198 0.02000
-1.37081 5.25800 0.09107
-0.92322 5.05620 0.03390
-0.57381 6.56649 0.03490
-0.50881 5.14766 0.03905
-0.49933 5.23179 0.09600
-1.33281 6.69277 0.02131
-0.65100 5.55965 0.08940
-0.53836 6.85620 0.02028
-1.33281 6.29069 0.07738
-0.70380 6.56736 0.02000
-0.50881 6.80147 0.07894
-1.37081 5.77864 0.09265
-0.56789 6.60063 0.09600
-0.86607 5.55965 0.08444
-0.79069 6.82202 0.02000
-1.03268 5.05620 0.06887
-1.33281 5.38172 0.04440
-0.52350 6.10107 0.08912
-1.37081 5.48490 0.07380
-0.47081 5.06718 0.08300
-1.27974 5.84936 0.08910
-0.47081 5.76362 0.05624
-1.16456 6.81820 0.06919
-1.37081 5.89265 0.07719
-1.20629 5.34594 0.03481
-0.60018 6.06307 0.03646
-1.28576 6.56649 0.08484
-0.62367 6.81985 0.02000
-0.92620 5.59765 0.03014
-0.49041 6.85620 0.02688
-1.25962 6.60449 0.08237
-0.88045 5.55965 0.08296
-1.15808 6.31478 0.04485
-0.59776 6.81820 0.03803
-1.33281 5.65267 0.08266
-1.27803 5.32571 0.02000
-0.50881 6.47446 0.05035
-0.48626 5.99412 0.02000
-0.62380 5.56576 0.09600
-0.79973 5.06638 0.09600
-0.69037 6.82651 0.02000
-0.67955 6.81820 0.02003
-1.33281 5.50426 0.05242
-0.47081 6.46622 0.08617
-0.82366 6.09249 0.02000
-0.96876 5.06896 0.09600
-1.08750 6.10107 0.05383
-0.96005 6.56649 0.05139
-0.49383 6.01175 0.02000
-1.06335 6.31478 0.05482
-1.10198 5.84936 0.04460
-1.37081 5.64694 0.02240
-0.61104 6.10107 0.09557
-0.98121 5.81136 0.06975
-1.14602 6.82377 0.09600
-0.91109 5.81136 0.07648
-1.20253 5.09420 0.06037
-1.31718 6.56649 0.04081
-1.36737 5.79181 0.09600
-0.47081 6.07884 0.07840
-0.49384 5.49910 0.02000
-1.37081 6.06482 0.03088
-1.26760 5.09420 0.07735
-0.96039 6.35278 0.06513
-0.80731 5.59765 0.08321
-1.03605 6.35278 0.06198
-1.37081 6.26186 0.07104
-0.94567 5.84377 0.09600
-0.69240 6.85620 0.05576
-0.82238 6.10107 0.05098
-1.29940 6.09337 0.09600
-0.87130 5.55965 0.04454
-0.94051 5.09420 0.06843
-1.11115 6.60449 0.03398
-0.93287 5.09420 0.06861
-0.47081 5.78789 0.02200
-0.47081 5.68559 0.02847
-0.48488 5.10575 0.09600
-1.09672 5.34594 0.09224
-0.50881 6.78360 0.09219
-1.33596 5.89357 0.02000
-0.49976 6.79008 0.09600
-1.37081 5.34067 0.04487
-0.94000 5.59765 0.03059
-1.24929 6.82075 0.09600
-1.13337 6.06307 0.03771
-0.51965 6.83261 0.09600
-0.54733 5.31378 0.02000
-0.73757 6.07621 0.09600
-0.54904 6.06307 0.06260
-0.50881 6.01172 0.09140
-0.82899 5.55965 0.09218
-1.18925 6.81820 0.04599
-1.18421 5.81136 0.07682
-0.65632 5.55965 0.08443
-0.61027 5.55965 0.08842
-0.62749 5.81136 0.08130
-0.79999 6.10107 0.07667
-1.21328 6.60449 0.04784
-1.33281 6.77452 0.02622
-1.36547 5.46039 0.02000
-0.81077 6.31478 0.06448
-0.68015 6.81820 0.08906
-1.20565 6.34540 0.02000
-1.00275 6.81820 0.02668
-1.19494 6.35278 0.04037
-1.26693 6.09717 0.02000
-0.98966 6.31542 0.09600
-1.20894 6.82900 0.09600
-0.70052 5.34594 0.06194
-1.26990 6.08956 0.02000
-0.60519 5.55965 0.05490
-1.19287 5.84936 0.07984
-0.48106 5.80348 0.02000
-0.67123 5.84936 0.04164
-0.93120 6.81820 0.02537
-1.03795 6.56649 0.02237
-1.10180 6.81820 0.03384
-0.50881 6.42556 0.05609
-1.26070 5.05625 0.02000
-0.81014 6.60449 0.03485
-1.33281 5.15713 0.07240
-1.33281 6.49547 0.03389
-1.36041 5.26345 0.09600
-0.81910 6.60193 0.02000
-1.04539 6.09995 0.09600
-0.98621 6.35278 0.08104
-0.57923 6.08527 0.02000
-0.54941 6.33149 0.02000
-1.37081 5.51661 0.09336
-0.85384 6.34283 0.02000
-0.49249 5.74823 0.02000
-1.33281 6.69282 0.05681
-1.34428 6.76584 0.09600
-0.79610 6.06711 0.02000
-0.49690 5.44181 0.09600
-0.47267 6.61609 0.02000
-0.67375 5.84936 0.09112
-0.57320 6.06307 0.04923
-0.57117 6.10107 0.09326
-1.10777 5.81136 0.05972
-0.50881 6.45992 0.03294
-0.47189 5.77929 0.02000
-0.56070 5.57410 0.09600
-0.47081 5.22172 0.05166
-0.67374 5.34361 0.02000
-0.73186 5.30794 0.04414
-1.26972 6.56649 0.07854
-0.73215 5.30794 0.08512
-0.49552 6.44536 0.02000
-0.64585 6.58206 0.02000
-0.98113 6.83411 0.09600
-1.11835 6.83090 0.02000
-0.84341 6.84294 0.02000
-1.26611 6.83928 0.02000
-0.65169 5.83086 0.02000
-0.69669 6.85620 0.02589
-1.22377 6.81820 0.08905
-0.80307 6.56649 0.06733
-1.34850 6.85620 0.08348
-0.74880 6.31478 0.05385
-1.18117 5.59765 0.04738
-0.47081 5.95057 0.04540
-1.36522 5.40923 0.02000
-1.33281 6.18077 0.06602
-0.89905 6.10107 0.08211
-0.51286 5.56067 0.09600
-0.68659 5.30794 0.02567
-0.47081 5.25019 0.05979
-0.74778 5.59765 0.02393
-0.72721 6.06307 0.09568
-0.55908 6.31478 0.06110
-1.35439 5.34816 0.02000
-0.47081 6.47888 0.09394
-1.01896 5.34594 0.07973
-1.16318 5.81962 0.02000
-0.82437 5.84936 0.08585
-1.37081 5.71833 0.09507
-0.85599 5.33936 0.02000
-1.37081 6.70387 0.06475
-1.30306 5.57457 0.09600
-0.91506 6.09591 0.02000
-0.49211 5.73507 0.02000
-0.61435 5.82872 0.09600
-0.96919 5.05620 0.07404
-1.01639 6.35278 0.07119
-1.17133 5.83130 0.02000
-0.95777 5.84216 0.09600
-0.49622 5.30631 0.02000
-0.50123 6.72715 0.02000
-0.77956 5.30794 0.02124
-1.19745 5.81136 0.04616
-0.84296 5.81136 0.02921
-1.28346 6.83532 0.09600
-0.63606 5.83048 0.02000
-0.50881 5.54788 0.08445
-0.94719 5.32450 0.09600
-0.50881 5.71534 0.07326
-1.33281 5.70839 0.04358
-0.79800 5.31622 0.02000
-0.99008 5.59765 0.08387
-1.29498 5.34594 0.07597
-1.33254 6.56649 0.03661
-0.52523 5.34594 0.08948
-0.83132 6.81820 0.07946
-0.51109 6.35278 0.06888
-1.14225 5.30794 0.07561
-1.36692 5.50561 0.09600
-1.03639 6.85620 0.03772
-0.51351 5.81136 0.03380
-1.35747 5.97498 0.02000
-1.33281 5.43402 0.08240
-0.47081 6.56193 0.09261
-1.15796 5.30794 0.06769
-0.47081 5.68883 0.09375
-1.37081 5.52874 0.04000
-1.08279 6.06307 0.04284
-0.75226 6.31478 0.06660
-0.60593 5.81136 0.03103
-0.70939 5.57123 0.09600
-0.74318 6.35278 0.06090
-1.07502 6.10107 0.07517
-0.58034 5.30794 0.06307
-0.56381 5.30794 0.07914
-0.53264 5.84936 0.08638
-1.13701 6.31478 0.02212
-0.97913 6.85620 0.07945
-0.88178 5.34594 0.02078
-0.94189 6.83451 0.02000
-0.65778 6.84037 0.02000
-0.50881 5.48636 0.06841
-1.37081 5.62639 0.03272
-0.93553 6.35278 0.07281
-0.66277 6.31478 0.07357
-0.56247 5.84936 0.02968
-1.37081 5.67858 0.05838
-1.37081 6.39264 0.08046
-1.23044 5.55965 0.05630
-0.57615 6.06307 0.03410
-0.62401 5.84936 0.07183
-0.75095 5.31138 0.02000
-1.33281 5.99076 0.02292
-0.48981 5.64710 0.09600
-1.36626 6.34151 0.02000
-0.50881 5.68868 0.04530
-0.47081 6.04917 0.02558
-1.33504 6.37613 0.09600
-1.00801 6.31772 0.09600
-0.51720 5.81136 0.08263
-1.19420 5.32545 0.02000
-1.15113 5.30794 0.06756
-1.37081 5.30560 0.04052
-1.18462 5.34437 0.09600
-1.09026 6.85620 0.05693
-0.50881 5.30331 0.07336
-0.76757 6.10107 0.08731
-0.55966 6.60449 0.05265
-0.98286 5.55965 0.04981
-1.33281 6.49588 0.03269
-0.49700 6.04334 0.02000
-1.00290 5.56335 0.02000
-1.28900 6.60449 0.02103
-0.61972 6.85620 0.04991
-0.51003 6.10107 0.05962
-0.69297 6.60449 0.08893
-1.37081 6.56937 0.02499
-0.47081 5.95156 0.03466
-1.36378 6.12143 0.09600
-0.74314 6.35278 0.08784
-1.12223 5.59765 0.02502
-0.81544 5.58955 0.02000
-1.37081 6.75719 0.06899
-0.64817 5.55965 0.04484
-1.37081 6.32057 0.03759
-1.13154 6.06307 0.09387
-0.73570 6.31478 0.08755
-1.26307 5.34594 0.09077
-1.36623 5.21138 0.09600
-1.13707 5.30794 0.08249
-0.47081 5.64355 0.03190
-1.22523 6.31478 0.03552
-1.16404 6.35278 0.05918
-1.32685 6.60246 0.02000
-0.68825 5.81136 0.05097
-0.86850 5.59765 0.09301
-1.33281 5.66729 0.03787
-0.47805 6.73946 0.02000
-0.50786 5.62703 0.02000
-1.09349 5.59765 0.08947
-1.06461 5.09420 0.08478
-1.33281 5.76014 0.02314
-0.51268 6.59167 0.09600
-1.14693 5.83602 0.02000
-0.79351 6.85620 0.06670
-1.19660 6.60449 0.03419
-1.17668 5.08736 0.02000
-0.54158 6.31478 0.05649
-0.97485 6.85620 0.03176
-1.25289 5.05620 0.04958
-1.20962 5.34594 0.03289
-1.37081 6.61840 0.05605
-1.37081 5.35864 0.05488
-1.23937 5.55965 0.04103
-0.61048 5.58253 0.02000
-1.06701 6.10050 0.09600
-0.47483 5.05703 0.09600
-1.33281 6.64580 0.08640
-0.50443 6.48473 0.09600
-0.54106 6.56649 0.03041
-0.79561 5.59765 0.02245
-1.04092 6.31478 0.05076
-1.36572 6.14112 0.09600
-0.49239 6.41272 0.02000
-0.48989 6.09844 0.09600
-0.74068 5.34594 0.09129
-1.00011 5.59765 0.05687
-0.51483 6.09743 0.09600
-0.79373 5.09420 0.08303
-0.64609 5.05620 0.08243
-1.33281 6.51537 0.08002
-1.06152 5.81136 0.04697
-1.22950 5.55965 0.07026
-0.57043 5.05620 0.03978
-1.04078 6.85620 0.03270
-0.72395 6.10107 0.09274
-0.82538 5.81136 0.04465
-1.33281 6.00705 0.09355
-1.37081 6.24331 0.07125
-1.07049 6.06307 0.09563
-1.10548 5.09420 0.07603
-1.12365 6.31478 0.07128
-1.33281 5.66492 0.02290
-0.58520 6.31478 0.05657
-0.85645 6.81820 0.09579
-1.20618 6.83201 0.02000
-0.76173 6.57203 0.09600
-1.37081 6.19250 0.05677
-0.66248 5.05807 0.09600
-0.97695 5.55965 0.05328
-1.36982 5.65315 0.09600
-0.82038 6.32325 0.02000
-1.28018 5.09420 0.04498
-1.36930 5.08556 0.09600
-0.61588 6.06307 0.09145
-1.04352 5.55965 0.09483
-0.67493 5.57708 0.02000
-0.72042 6.35278 0.04240
-1.29004 6.06307 0.05071
-1.37081 6.60642 0.02064
-1.19714 6.31478 0.03958
-1.33281 5.94368 0.07416
-0.47081 5.13010 0.08133
-0.48799 5.88460 0.09600
-0.51742 5.55965 0.04778
-1.26043 5.55965 0.04169
-1.05718 6.10107 0.05283
-1.25738 5.32427 0.09600
-0.77667 5.81136 0.07281
-0.65063 6.60449 0.03458
-1.20240 6.83350 0.09600
-0.74259 6.60449 0.03250
-1.18187 6.06944 0.02000
-1.12754 5.55965 0.08566
-1.13737 6.10107 0.03272
-0.74672 6.06307 0.02582
-0.47081 5.37857 0.08229
-0.83879 6.31939 0.02000
-1.36506 5.59726 0.09600
-0.70478 5.81136 0.02944
-1.16419 5.81841 0.09600
-1.25490 6.06307 0.05700
-0.56268 5.31547 0.02000
-0.50881 5.80196 0.07236
-0.48886 5.35696 0.09600
-0.66337 6.81820 0.03446
-1.21623 5.34594 0.04252
-1.28452 5.59765 0.02502
-0.71054 6.58335 0.02000
-0.50409 6.79120 0.09600
-0.47081 5.71810 0.03592
-1.36740 6.62817 0.02000
-0.87854 5.09420 0.04257
-1.33281 5.14556 0.08656
-1.05577 5.59765 0.04995
-0.50881 6.71829 0.05255
-0.47081 6.63475 0.06386
-0.68339 5.59765 0.04989
-1.33281 6.71462 0.08512
-0.61563 5.08765 0.09600
-1.23493 5.30794 0.04376
-0.88723 5.05620 0.09345
-1.18397 5.34594 0.08578
-0.87373 6.85620 0.08977
-0.92138 6.83198 0.02000
-0.93350 5.06454 0.09600
-0.91415 5.82899 0.02000
-0.90634 5.30794 0.06568
-0.84962 5.81136 0.03040
-1.33281 5.86028 0.05331
-0.50881 5.39169 0.09466
-1.00510 5.82792 0.09600
-0.70029 6.56649 0.04980
-0.90822 5.81136 0.02274
-0.55658 6.60449 0.04076
-0.55289 6.60449 0.05210
-0.98216 5.84936 0.04788
-1.37081 5.44465 0.05922
-1.05679 6.84051 0.09600
-1.32620 6.34379 0.02000
-1.21715 5.30794 0.05355
-1.26893 5.55965 0.08253
-0.64752 6.32863 0.02000
-0.51728 6.35278 0.03992
-0.67036 6.81820 0.05493
-1.20399 5.06186 0.09600
-0.94728 6.85620 0.09360
-0.47081 5.53795 0.04644
-1.26217 5.07781 0.02000
-1.33281 6.25617 0.03589
-0.62659 5.81136 0.07660
-1.21983 6.85620 0.04122
-1.21969 6.34248 0.02000
-0.47131 5.71600 0.09600
-1.14922 6.84189 0.02000
-0.50881 5.22563 0.04742
-1.04912 6.82295 0.02000
-1.03844 6.08500 0.02000
-1.13654 5.59765 0.04749
-0.76968 5.81136 0.07778
-0.80891 5.55965 0.07290
-1.37081 5.91432 0.05390
-1.18538 5.81136 0.02231
-0.57517 6.35278 0.08362
-0.63344 6.81820 0.04120
-0.82995 5.09420 0.04953
-1.14545 6.82662 0.09600
-0.52041 5.55965 0.02021
-1.36136 5.83084 0.02000
-0.65648 6.31478 0.07118
-0.70142 5.84936 0.02717
-0.47749 6.24745 0.09600
-1.33281 6.61524 0.09321
-1.07670 5.06589 0.02000
-0.47081 5.28660 0.06045
-0.98274 6.56649 0.09055
-1.37081 6.05364 0.02312
-0.85278 6.84863 0.02000
-0.95253 5.81356 0.02000
-0.79501 5.84936 0.05640
-1.22259 6.06307 0.06942
-0.47590 6.70799 0.09600
-0.47081 5.37489 0.06286
-1.05370 6.31478 0.06159
-1.34117 6.27982 0.09600
-0.83007 5.59765 0.05561
-0.47081 6.84939 0.07122
-1.37081 6.76639 0.06322
-1.12292 5.34594 0.05125
-0.60488 6.31478 0.07502
-0.75467 5.30794 0.03822
-1.33281 6.70301 0.05390
-1.14893 6.60449 0.09137
-0.50881 6.54861 0.04701
-0.48562 5.37512 0.02000
-0.47081 5.92475 0.05285
-1.33281 6.10301 0.03024
-0.62519 6.57423 0.02000
-1.15860 6.34133 0.02000
-0.53880 6.81820 0.08919
-0.92574 6.10107 0.07957
-0.57431 5.81136 0.09004
-0.52661 5.56256 0.09600
-1.31936 6.32282 0.02000
-0.74726 6.60449 0.09028
-0.93321 5.34594 0.03524
-1.33281 5.17176 0.04394
-1.37081 6.32958 0.05550
-0.85193 5.82677 0.02000
-0.47081 5.91826 0.04536
-1.13840 6.60449 0.06011
-0.84735 6.85620 0.08584
-0.71550 5.84936 0.02194
-1.25781 5.84936 0.05657
-0.70432 6.56649 0.03902
-1.17769 6.35278 0.07489
-0.85334 6.81820 0.03650
-0.99614 5.59765 0.04298
-0.86261 6.06307 0.03211
-0.50881 6.63116 0.02180
-0.50881 5.69972 0.09402
-0.66740 5.30794 0.09007
-1.33281 5.91188 0.07549
-0.70772 5.59765 0.08825
-0.49800 6.67982 0.02000
-1.29298 5.84906 0.09600
-0.47081 5.91329 0.02148
-1.37081 6.10158 0.03277
-0.50668 6.15946 0.09600
-0.48280 5.52296 0.02000
-1.13732 5.30794 0.09075
-0.73320 5.55965 0.05121
-1.11071 5.81136 0.04601
-1.23220 5.34594 0.09226
-0.48735 6.68249 0.09600
-1.21830 5.09198 0.02000
-1.19993 5.82389 0.02000
-0.50881 6.40608 0.04384
-0.47081 5.46056 0.04809
-1.23160 6.10107 0.08763
-1.01279 6.81820 0.06839
-0.77095 5.09420 0.04995
-0.69819 6.56894 0.09600
-0.77455 5.55965 0.02598
-0.93273 6.06307 0.03446
-1.01500 5.30794 0.07179
-1.37081 6.55118 0.08005
-0.55877 5.07744 0.09600
-0.93760 6.81820 0.06514
-1.24783 5.30794 0.05137
-0.76321 6.08437 0.02000
-0.47081 5.97239 0.08379
-1.21297 5.30794 0.04365
-0.88544 6.06307 0.07719
-0.73248 5.31961 0.09600
-0.82911 5.81136 0.02361
-0.80154 5.32505 0.02000
-1.12321 5.09420 0.02766
-0.50881 5.84975 0.07620
-1.37081 5.19428 0.07817
-1.21510 6.10107 0.08562
-0.93110 6.10107 0.02732
-0.84410 5.34054 0.02000
-0.75280 5.30913 0.02000
-1.35967 6.33530 0.02000
-1.12413 6.10107 0.05681
-0.67165 5.09420 0.03043
-1.02726 5.30794 0.04808
-0.68862 6.56649 0.02650
-0.56557 5.33301 0.02000
-0.61543 5.83071 0.02000
-1.22440 6.56649 0.05307
-1.17704 6.35278 0.03528
-1.17607 6.10107 0.05939
-1.07444 6.34051 0.09600
-1.06228 6.60449 0.07738
-1.35882 6.81708 0.09600
-1.11152 5.84936 0.04993
-1.08866 6.07516 0.02000
-1.34442 6.64094 0.02000
-1.00707 6.35278 0.06872
-0.97579 5.30794 0.07977
-0.95651 5.30794 0.09155
-1.05166 5.59765 0.05889
-1.15932 5.59765 0.03468
-0.47081 6.01726 0.09452
-0.47081 6.43394 0.05362
-1.37081 5.87158 0.05334
-0.50881 6.49552 0.07887
-1.04611 5.59765 0.08528
-0.92364 5.59765 0.04905
-0.51745 5.30794 0.04407
-0.50099 5.77019 0.09600
-0.68025 6.85620 0.05472
-0.50881 6.20952 0.07490
-0.47081 6.68378 0.05518
-1.27202 5.84936 0.05213
-0.75456 6.31478 0.08019
-0.57356 6.85620 0.05996
-0.50881 5.93265 0.02327
-0.99142 6.10107 0.08049
-0.89031 5.84678 0.09600
-0.97963 6.06307 0.08321
-0.48982 5.43259 0.02000
-0.55154 5.59365 0.02000
-1.19739 5.09420 0.06488
-0.51449 5.84936 0.03951
-0.56924 6.85620 0.08843
-1.31537 6.60449 0.03074
-1.28941 6.31478 0.03206
-0.61780 6.10107 0.05178
-0.47081 6.81126 0.06257
-0.70412 5.05620 0.04095
-0.50881 5.43854 0.04462
-1.14926 6.31478 0.02687
-0.53176 6.31478 0.05680
-0.50850 5.25070 0.09600
-1.29069 6.06307 0.03599
-0.99193 6.85620 0.05101
-0.49774 5.23716 0.09600
-1.04182 5.05620 0.05795
-1.31232 5.30794 0.04563
-1.37081 6.32898 0.08011
-0.52537 5.09420 0.08698
-1.30782 5.09093 0.09600
-1.37081 6.74193 0.03183
-1.30359 5.05620 0.06523
-1.33281 6.36859 0.09427
-0.49942 6.85620 0.09522
-0.76811 6.34678 0.09600
-1.05717 6.56649 0.04753
-1.33281 5.30028 0.09185
-0.81370 6.56649 0.07470
-0.84982 6.31478 0.07038
-0.78494 5.59765 0.09100
-1.34883 6.55409 0.02000
-0.47081 6.65720 0.02502
-0.61997 5.33229 0.09600
-1.08326 6.60320 0.09600
-1.06592 5.56592 0.09600
-0.94672 5.30794 0.08838
-0.50628 5.05620 0.07472
-0.48697 5.36775 0.02000
-0.54070 5.84936 0.07573
-1.20293 5.57451 0.02000
-1.23643 6.82344 0.02000
-1.33281 5.60387 0.08483
-0.54652 5.55965 0.06418
-0.82655 6.10107 0.07203
-0.72257 5.34594 0.03431
-0.60100 5.30794 0.04156
-0.62475 5.59160 0.02000
-0.47081 5.86401 0.02871
-1.29226 6.35278 0.02224
-1.33281 5.93804 0.04625
-1.33435 5.24166 0.09600
-1.37081 6.53510 0.08495
-0.73745 5.84936 0.08778
-1.14866 5.57987 0.02000
-1.34867 6.36991 0.02000
-0.91668 5.59765 0.08534
-0.71972 6.60449 0.03578
-1.10731 5.59765 0.08713
-1.02777 5.30794 0.03743
-0.64695 6.60449 0.07397
-0.47081 6.64050 0.08666
-0.50264 5.52737 0.09600
-0.72237 6.85620 0.07036
-1.27038 6.35129 0.02000
-1.32491 6.34658 0.09600
-0.82215 5.55965 0.08107
-0.64538 5.08675 0.09600
-0.86400 5.05620 0.03726
-1.18468 5.09420 0.08204
-1.20609 6.35278 0.05984
-1.06383 5.06666 0.02000
-1.36362 5.63061 0.09600
-1.32337 5.30794 0.07477
-0.63197 6.33267 0.02000
-1.28511 6.06307 0.07560
-0.79719 5.84936 0.09445
-1.14254 6.10107 0.07608
-1.07921 6.35278 0.08408
-1.34476 5.14231 0.09600
-1.32249 6.81820 0.05178
-1.37081 6.75859 0.06393
-0.50881 5.76395 0.09500
-1.05701 6.60449 0.06034
-0.48722 5.28517 0.02000
-0.49058 5.75769 0.09600
-0.47081 6.26838 0.02825
-1.37081 6.28074 0.03362
-1.16165 5.05620 0.04566
-1.26686 6.59028 0.09600
-1.33281 5.18046 0.08331
-0.49032 5.43047 0.09600
-0.65361 5.34594 0.08427
-0.82811 5.81136 0.02054
-0.99069 5.07056 0.02000
-1.37081 6.82807 0.07150
-0.50881 5.10973 0.08913
-1.23595 5.84403 0.02000
-1.20773 5.05620 0.08121
-0.47081 5.82730 0.09397
-1.35614 5.70499 0.09600
-1.33835 5.78378 0.09600
-0.56791 6.56649 0.08702
-1.29298 5.05620 0.05430
-0.53991 6.35278 0.09155
-0.51528 5.81136 0.06828
-1.35291 6.29169 0.09600
-1.36684 5.55083 0.09600
-0.76929 6.81820 0.07629
-1.33281 5.44110 0.06497
-0.47081 6.83275 0.09538
-0.79732 6.85620 0.09121
-1.11013 5.55965 0.03932
-1.26744 6.06307 0.02430
-1.11460 5.34594 0.06164
-1.26995 6.60449 0.09098
-0.72690 6.81820 0.02583
-1.15120 6.60449 0.07141
-1.33281 5.97131 0.03403
-1.25670 5.05620 0.07416
-1.33281 6.30180 0.07116
-0.49122 6.80869 0.09600
-1.06964 5.81136 0.02285
-1.19973 5.32020 0.02000
-0.54446 6.81820 0.02098
-0.93233 5.81136 0.08913
-0.95487 6.31478 0.04410
-0.88983 6.10107 0.08779
-0.51386 6.35278 0.03538
-0.84961 6.56649 0.05587
-0.89472 6.06725 0.02000
-0.50881 6.04655 0.08972
-1.33281 6.46815 0.02623
-0.50881 5.10309 0.05085
-1.21876 5.08170 0.09600
-0.50881 5.53668 0.06848
-0.90348 6.84278 0.02000
-0.50881 6.74581 0.04364
-0.47081 6.38901 0.06467
-1.17543 5.59765 0.04501
-1.33281 5.72021 0.06436
-0.86468 6.07132 0.09600
-1.37081 6.65863 0.05868
-1.23707 5.34594 0.07220
-0.80880 5.09420 0.06803
-1.37081 5.55718 0.03456
-0.52273 5.05620 0.04648
-0.71902 5.09420 0.05386
-1.37081 6.29580 0.04859
-0.77514 5.84787 0.09600
-0.47107 6.45934 0.09600
-0.50881 5.88341 0.04553
-0.97452 6.83332 0.02000
-1.16509 6.81820 0.09245
-1.28425 5.07514 0.09600
-1.33281 6.25401 0.08218
-0.50606 5.81954 0.02000
-1.19614 6.06307 0.04494
-0.50881 5.51555 0.07980
-0.57965 6.31757 0.02000
-0.47081 6.19205 0.05016
-0.64932 5.05620 0.08228
-0.57866 5.84379 0.02000
-1.05093 6.57395 0.02000
-1.33281 6.53171 0.03930
-1.03802 6.31478 0.06227
-1.29037 6.10107 0.02927
-0.47081 5.91224 0.09560
-0.47081 5.30568 0.05113
-1.11330 5.84936 0.07789
-0.61801 6.83090 0.09600
-1.11649 5.08525 0.09600
-1.21177 5.30794 0.05557
-1.37081 5.13491 0.03481
-0.86012 6.06307 0.07943
-1.37081 5.61626 0.06971
-0.78269 5.09420 0.08000
-1.31097 5.81136 0.06791
-0.64878 5.06358 0.09600
-1.30117 5.30794 0.07650
-0.71607 6.10059 0.02000
-0.65420 5.59765 0.03133
-1.37081 6.47739 0.04116
-0.52927 5.33381 0.02000
-0.93806 5.58762 0.09600
-0.93543 5.59765 0.08339
-1.02135 5.59765 0.08941
-0.63783 6.06307 0.06300
-1.33281 6.51942 0.05983
-1.12117 5.55965 0.06085
-0.62172 5.55965 0.03598
-1.37081 5.59220 0.03987
-0.87095 6.60449 0.04534
-1.26197 5.30794 0.02424
-0.50881 6.13081 0.06405
-1.13020 5.81136 0.08687
-0.63269 6.06307 0.09347
-0.92290 5.59254 0.02000
-0.53591 6.56677 0.02000
-0.47081 6.32475 0.08695
-0.63533 6.81820 0.03458
-1.31591 6.58911 0.02000
-0.47081 6.64376 0.02892
-0.47081 5.54846 0.08416
-1.33281 6.21917 0.05700
-1.33281 5.76790 0.06847
-1.01076 6.09159 0.02000
-1.06268 6.56972 0.09600
-0.47662 5.41478 0.02000
-1.26706 5.34594 0.03951
-1.33281 5.09797 0.07193
-1.02658 5.34594 0.02760
-0.84578 6.84153 0.09600
-1.33281 6.19843 0.02171
-0.47081 5.16979 0.09449
-0.63651 5.32516 0.02000
-1.00852 5.07097 0.02000
-1.33281 6.70530 0.05097
-1.36501 6.39875 0.09600
-0.55720 5.55965 0.08387
-0.81503 6.10107 0.03583
-1.31608 6.81820 0.09423
-1.31282 5.59765 0.06970
-0.98866 6.60449 0.06866
-0.50724 5.05620 0.07220
-0.90124 6.31478 0.08418
-1.16971 5.05620 0.02909
-1.37081 5.64650 0.08439
-1.21876 6.81820 0.07424
-1.07628 6.06307 0.05359
-1.37081 5.83769 0.08111
-0.56304 6.56649 0.07608
-1.33281 5.13365 0.04102
-1.32878 6.56649 0.05363
-0.56042 5.59765 0.05189
-0.80381 5.59765 0.08559
-1.13847 6.10107 0.03049
-0.50881 5.51778 0.03363
-1.01777 6.85225 0.09600
-0.50881 5.64397 0.08102
-1.10887 5.34594 0.07862
-0.61117 6.85620 0.06744
-1.37081 6.08517 0.07058
-1.20471 6.06307 0.05107
-1.37081 6.17089 0.05059
-0.47081 6.67575 0.06789
-0.50454 6.57203 0.09600
-0.86527 5.31655 0.02000
-0.50210 5.40272 0.09600
-1.10994 5.57493 0.02000
-1.33281 6.70060 0.06641
-1.27298 6.85309 0.02000
-0.56725 6.85620 0.09458
-0.54349 6.85006 0.02000
-0.47081 5.98165 0.07644
-1.37081 5.92114 0.07863
-1.34018 6.37482 0.02000
-0.81685 6.31478 0.02669
-0.58280 5.56910 0.09600
-1.37081 5.26127 0.03977
-1.33281 6.71635 0.07574
-0.74746 6.84904 0.02000
-1.25712 5.59765 0.03784
-1.07283 6.10107 0.06009
-0.72088 6.35278 0.03799
-1.11758 5.30945 0.02000
-0.95612 6.10107 0.09118
-0.94982 6.31478 0.04589
-0.92612 5.84936 0.06015
-0.61316 5.59765 0.06509
-1.16802 5.30794 0.04026
-1.13982 6.58684 0.02000
-1.10769 6.85620 0.06844
-0.50881 6.25542 0.09462
-1.37081 6.27438 0.08176
-0.89831 6.35278 0.06070
-1.28911 6.56649 0.04636
-1.33281 6.41087 0.05006
-0.81705 6.35278 0.06029
-0.77994 6.31478 0.02392
-1.23631 6.08904 0.02000
-0.70606 6.85470 0.02000
-1.27508 6.08046 0.02000
-1.28571 6.06307 0.09039
-1.35615 5.05620 0.09135
-0.63523 6.60449 0.07382
-1.07709 5.33069 0.02000
-1.26757 5.05620 0.04042
-0.50881 6.38877 0.07917
-1.02445 5.34594 0.04930
-1.37081 6.09460 0.08184
-1.24014 5.57545 0.09600
-1.13642 5.81136 0.08079
-1.09623 5.83574 0.02000
-0.64439 5.59765 0.07184
-1.29985 6.32263 0.09600
-1.03017 5.09420 0.03186
-0.47081 5.11997 0.08446
-0.90537 6.58356 0.02000
-0.92001 6.59041 0.09600
-1.31683 6.06307 0.05018
-0.48454 6.43366 0.02000
-1.13586 6.10107 0.04131
-1.12661 5.84936 0.09438
-1.33281 5.37789 0.06917
-1.17133 6.81820 0.08490
-0.50881 6.50458 0.06887
-1.23007 6.35278 0.06181
-1.25674 6.84567 0.09600
-1.00798 6.56649 0.03409
-1.37081 5.38604 0.02457
-0.50881 5.53941 0.02989
-1.19928 6.06307 0.06958
-0.78818 5.09420 0.04356
-0.49437 6.26310 0.02000
-0.75746 6.56649 0.07896
-0.50487 5.61549 0.09600
-1.23166 5.05620 0.05144
-0.98741 6.10052 0.09600
-1.36701 5.38230 0.09600
-0.85759 5.59765 0.08580
-0.76954 5.09420 0.06737
-1.00590 5.81136 0.07798
-1.29429 5.56853 0.02000
-1.32725 6.35278 0.05702
-1.26958 6.56712 0.09600
-1.35854 6.76278 0.09600
-0.63330 5.84936 0.08915
-1.37033 6.35208 0.09600
-1.33442 6.42076 0.09600
-0.47081 6.45551 0.02144
-0.47081 6.22591 0.06718
-1.13737 6.85620 0.06343
-0.47081 6.72088 0.09146
-1.22729 5.08657 0.09600
-0.50087 5.65558 0.09600
-1.32662 5.34594 0.08620
-0.57528 5.59765 0.02710
-0.89212 5.07357 0.02000
-1.33281 6.17145 0.03422
-1.37081 5.66694 0.04606
-0.56818 6.85620 0.04274
-1.35287 6.79446 0.02000
-0.96634 6.58661 0.09600
-0.87784 6.81820 0.04208
-1.05331 5.59765 0.06159
-1.04898 6.56649 0.06557
-0.76051 6.35278 0.04514
-0.50881 5.20350 0.06164
-0.67581 6.60449 0.03113
-1.18351 6.31478 0.05209
-1.36875 6.59393 0.09600
-1.19787 5.59765 0.07529
-0.50881 6.51222 0.04994
-0.83440 6.10107 0.06309
-1.37081 5.66636 0.05698
-0.62731 6.34039 0.02000
-1.02460 6.85620 0.07255
-1.07147 6.33544 0.02000
-0.95387 6.81820 0.02900
-1.18479 6.60449 0.08098
-0.69633 6.82707 0.02000
-1.37081 5.82422 0.04531
-0.91554 5.59765 0.04282
-0.50881 6.24633 0.02716
-0.47560 5.28683 0.02000
-0.94357 6.10107 0.03073
-0.47851 5.80046 0.09600
-0.50881 5.96695 0.07645
-1.34601 5.75547 0.02000
