# .PCD v0.7 - Point Cloud Data file format
VERSION 0.7
FIELDS x y z
SIZE 4 4 4
TYPE F F F
COUNT 1 1 1
WIDTH 1907
HEIGHT 1
VIEWPOINT 0 0 0 1 0 0 0
POINTS 1907
DATA ascii
2.50170 -2.53165 0.02000
-2.68981 0.98376 0.02292
-1.98818 1.71299 0.02000
3.16128 1.18176 0.02000
-0.43401 4.88242 -0.00000
1.32419 1.49089 0.37174
-3.93288 4.33822 -0.00000
3.29152 -2.56997 0.02000
-1.78981 -0.49249 0.45062
-2.72181 4.11434 0.68502
-2.23100 -2.62446 0.32000
3.15619 -3.15921 0.37216
-1.29112 0.74252 0.02000
1.04635 -1.61113 0.00000
-2.57160 0.97715 0.03600
-2.32656 1.21499 0.00000
-2.50227 -2.76674 0.09500
-2.03362 0.81431 0.18600
0.62517 -2.43959 0.00000
4.11676 -1.35832 0.02000
-0.85781 1.00007 0.36334
-0.85781 0.37785 0.23906
-3.16603 3.72278 0.00000
-2.86635 -2.94592 0.02000
-0.87681 0.95338 0.14705
0.10628 1.95831 0.00000
-0.78042 -2.16674 0.00000
1.20813 -2.99625 0.00000
-2.93305 1.36319 0.02000
-0.67908 -3.11444 0.02000
-1.57339 -1.39319 0.02000
-1.28513 -1.93931 0.32000
1.83399 -1.86371 0.02000
1.63166 -1.29365 0.03600
-0.21131 3.56416 0.02000
2.36765 -1.04001 0.02000
-2.10550 5.20160 -0.00000
1.32082 -3.59105 0.00000
2.25619 3.43205 0.42264
-2.42794 2.05098 0.00000
3.18819 3.35587 0.60713
3.15619 0.40088 0.26391
-2.23027 -2.90628 0.32000
1.79231 2.24936 0.03535
-1.80189 0.50998 0.02000
-1.17092 -1.17894 0.00000
1.32419 3.21713 0.48990
1.20127 -2.47743 0.02000
-2.68981 -2.57709 0.43157
0.67893 2.35040 0.00000
-1.78981 -1.78139 0.74187
-1.09666 1.45125 0.00000
-1.30345 -0.91778 0.03600
2.77496 -1.34529 0.02000
-0.47748 -2.56234 0.02000
-0.87159 4.06714 0.00000
1.96244 -3.25757 0.02000
-2.39438 -2.93693 0.07557
-2.72181 4.14251 0.79671
-2.33189 -3.01228 0.02000
0.92951 1.43121 0.00000
-2.29853 4.37689 -0.00000
-3.73972 1.28252 0.00000
2.87214 -0.16439 0.02000
-0.04864 -2.90480 0.07011
-2.72181 0.03182 0.19828
1.37361 -3.47086 0.00000
2.25619 -2.42540 0.37624
0.93595 -2.54560 0.02000
1.40405 -0.08950 0.26604
-1.58128 -0.99319 0.02000
3.18819 3.40251 0.10149
2.25619 0.16457 0.54863
3.15619 -1.20818 0.50135
1.29219 1.90558 0.24528
0.74562 1.23684 0.02000
-2.83427 0.07815 0.02000
0.96400 -1.86195 0.00000
1.89900 -1.37462 0.02000
-3.28594 3.67090 0.02000
-1.02247 -3.14303 0.02000
-2.15935 -2.81391 0.32000
1.28310 -2.60735 0.00000
-2.72181 -3.59442 0.22704
0.62239 2.13181 0.00000
2.69444 4.58206 0.02000
3.28098 -3.09300 0.02000
-1.34274 0.75327 0.00000
0.24920 -0.44878 0.00000
-1.75781 -1.23140 0.20454
-0.72143 3.56480 0.00000
-1.44485 -2.03192 0.47000
2.22419 -2.69006 0.27721
2.74047 4.70562 -0.00000
0.56188 -3.47132 0.02000
-1.75781 0.79189 0.29208
-2.25564 1.65234 0.00000
-1.34424 -0.13872 0.00000
1.00536 -0.29617 0.02000
0.24267 -2.52552 0.02000
-2.38019 -2.67275 0.02000
-2.34930 1.29199 0.03600
-0.82581 3.55158 0.29507
-1.98439 -3.24780 0.02000
-1.75781 -2.87246 0.53972
0.16228 -2.93680 0.78501
0.61811 1.36609 0.00000
2.80987 1.69582 0.09600
2.25619 3.81773 0.61397
-1.78981 -2.15465 0.57611
0.98697 2.15368 0.02000
-2.72181 1.92486 0.03524
0.91141 -3.29159 0.03600
-3.86794 -3.05556 0.02000
-2.57287 -3.51740 0.02000
-1.19256 -1.23991 0.00000
1.29219 1.57610 0.22153
2.74392 1.14507 0.02000
-3.42972 0.32572 0.00000
-2.82866 4.89584 0.02000
1.80619 -3.12061 0.02317
-3.17013 3.97720 0.00000
-0.34383 -3.25405 0.02000
2.62893 -0.68693 0.04477
-3.04449 -2.48284 0.02000
2.41612 -2.94534 0.02000
-3.67519 -2.89005 0.00000
-2.27634 -2.93693 0.45462
3.90264 0.13846 0.00000
3.13721 2.32828 0.02000
-2.37981 0.54008 0.07518
2.87032 -2.52483 0.03600
0.00765 4.18878 0.02000
2.84409 2.02870 0.00000
-0.87241 -2.10477 0.47000
-3.49885 5.13950 0.02000
-0.82581 1.50792 0.39392
-0.51360 -2.90480 0.67100
-0.87105 0.98479 0.00000
3.18819 3.70224 0.47162
-1.98246 -2.43611 0.24500
3.18819 -1.68635 0.59730
2.25619 1.57707 0.41704
4.12716 2.24674 0.00000
4.16563 4.19243 0.02000
-2.45041 -2.34696 0.39500
1.55056 4.42851 0.02000
-3.23721 -0.61051 0.00000
-1.75781 -2.92192 0.21281
2.28362 -3.12278 0.02000
-1.04822 -2.93680 0.31415
-0.76622 -3.86893 0.03760
-3.29484 2.01712 0.02000
4.39986 3.52151 0.00000
2.22419 1.25340 0.21203
1.77912 1.34599 0.02000
-2.49188 -0.91875 0.00000
-2.30594 -0.13797 0.09500
2.55519 1.32763 0.00000
0.25069 -2.93680 0.55862
-1.78981 1.37266 0.23455
0.97718 -1.44095 0.02000
3.15619 -2.21854 0.81230
-1.37576 -0.51480 0.04904
-2.72181 0.95539 0.29721
3.03291 3.42607 0.02000
-3.37808 -2.22580 0.02000
-1.64744 1.64167 0.00000
3.15619 -2.05847 0.47086
3.62921 1.87353 0.02000
-1.65669 0.86355 0.02000
-0.46541 -2.45180 0.30702
3.18819 -2.31359 0.47415
2.35101 4.29774 0.02000
-0.86894 -3.86893 0.67984
2.25619 -2.40804 0.13097
-2.47917 -0.94275 0.03600
4.28078 -0.01727 0.00000
2.54827 1.40456 0.00000
2.97864 -2.45189 0.02000
2.42232 -2.64393 0.00000
-2.35952 -3.53419 0.02000
-2.43069 -2.08171 0.17000
-1.51986 -3.03001 0.43511
-2.72181 -1.65772 0.35610
1.76032 -0.71045 0.17329
4.26742 -2.32595 0.02000
-0.66230 -2.90480 0.17800
1.41718 3.08364 0.02000
-2.57923 -1.70724 0.17000
-0.18062 0.39116 0.00000
-2.22729 4.70376 0.02000
-3.71685 -3.10250 0.02000
-1.25918 3.62934 0.00000
2.04907 0.71701 0.00000
-2.94604 -1.63534 0.00000
0.22822 -1.73976 0.00000
-2.27433 0.52347 0.02000
2.64307 1.79044 0.00000
0.01141 -2.93680 0.05067
-2.77204 1.37760 0.02000
-3.43451 1.32069 0.02000
1.62077 -3.45380 0.02000
1.83367 -0.11839 0.02000
2.04761 -3.49258 0.02000
-1.44003 -2.90480 0.40250
3.06274 -0.11803 0.00000
0.61438 -3.83693 0.14190
-0.30676 1.02350 0.02000
3.88397 -1.40673 0.02000
-4.19937 0.05891 0.00000
1.35156 0.36836 0.00000
-0.91670 -1.26170 0.02000
-3.48419 -1.41622 0.02000
-3.08356 1.67003 0.02000
2.13567 0.10620 0.12253
-0.82581 3.24248 0.50750
-2.70889 3.73262 0.02000
-1.78981 2.04427 0.11544
-1.50817 0.24984 0.02000
1.39903 -3.86893 0.37799
1.29219 0.16949 0.79306
-2.27730 -3.83693 0.04643
-1.06194 3.00953 0.00000
1.79255 0.61783 0.00000
-1.75781 -0.48505 0.38501
2.02939 -0.11112 0.02000
1.30178 -2.77083 0.02000
-1.84064 -0.05082 0.02000
2.22405 -0.59090 0.02000
3.15619 -0.62612 0.79633
1.32419 1.33132 0.78820
1.08220 -3.60881 0.02000
2.25619 -1.36814 0.05627
-2.72181 -2.76194 0.19128
2.60165 -3.45397 0.03600
1.80258 -1.55569 0.00000
0.39020 -2.90480 0.04284
-1.87368 -1.29221 0.00000
-0.00557 -0.05171 0.00000
1.81315 5.20774 0.02000
3.54260 4.43992 -0.00000
4.41221 -3.77902 0.00000
-2.29804 -3.74129 0.02000
3.36535 2.79537 0.00000
-1.78981 -1.54881 0.24872
-3.99733 1.70266 0.00000
1.70223 -2.38249 0.02000
-2.42171 2.66945 0.02000
-2.68981 -1.33143 0.12226
-1.13319 0.35609 0.02000
-0.02775 -2.90480 0.07559
0.54833 0.33075 0.00000
3.07441 -0.45093 0.02000
-0.22792 -3.51453 0.00000
-0.82581 -0.93382 0.63059
4.39325 0.55296 0.02000
-3.86924 -0.20738 0.02000
-2.57165 -1.81849 0.02000
-0.30856 -2.00480 0.10402
4.17917 3.96492 0.00000
-0.82581 0.81121 0.46557
-1.78981 3.89247 0.27061
2.54893 4.36412 -0.00000
1.08145 3.25786 0.00000
2.70678 -1.77626 0.02000
2.60422 -2.71885 0.00000
2.25619 -1.16546 0.56172
1.97276 2.21136 0.07595
-2.73171 4.19172 0.00000
-2.51468 -3.12296 0.47000
1.94750 1.31889 0.02000
2.25619 -1.75529 0.03982
3.54345 -0.61744 0.02000
1.66689 2.74296 0.09600
1.39714 -3.83693 0.02583
2.27086 -3.49903 0.02000
-0.56784 -3.22049 0.02000
-1.75781 1.41560 0.34110
2.40007 -3.83693 0.60388
-2.92694 -3.42921 0.02000
-2.66918 -2.08424 0.02000
3.01652 1.63948 0.00000
3.18819 -2.39562 0.59347
-1.84676 -2.18221 0.09500
-1.94125 -3.75356 0.00000
-3.26444 2.81902 0.00000
-3.34625 -3.38185 0.00000
-1.32094 1.07050 0.00000
1.29219 3.23990 0.54335
0.96054 1.57037 0.02000
-0.56262 -0.95518 0.02000
-4.18917 -0.65344 0.02000
3.18819 -1.13554 0.35541
-2.29472 -1.16871 0.09500
-0.94761 0.90320 0.14144
-2.68981 -3.33463 0.68365
0.05038 -3.38258 0.02000
1.25369 -3.79742 0.00000
2.25619 -1.53171 0.51541
2.91286 -3.48488 0.03600
-2.01979 5.07155 0.02000
-2.87964 -2.87468 0.00000
-2.49692 3.76323 0.02000
4.15371 4.72099 0.02000
-1.43202 -2.78843 0.02000
-0.85781 4.17981 0.52392
-1.86196 3.47466 0.00000
-2.72113 -3.19261 0.02000
2.25619 -2.15079 0.59653
1.29219 -0.06517 0.43583
3.18819 -0.46891 0.47904
1.42837 0.31619 0.07835
-1.10029 5.20815 -0.00000
3.18819 -2.75484 0.50946
0.77309 2.04064 0.00000
3.52992 -3.38254 0.02000
-2.72181 -3.13217 0.76589
-1.08816 -0.92940 0.02000
3.18819 -2.67802 0.77386
1.44156 -3.41183 0.02000
1.29219 4.03724 0.69355
-2.28868 -3.86893 0.29844
1.84619 2.33607 0.09600
1.93611 2.69343 0.00000
4.34015 -2.64921 0.02000
2.53704 -3.83693 0.26811
-0.75158 -2.43728 0.00000
-1.78981 -0.61709 0.37001
-0.30825 -3.33347 0.02000
-2.14144 1.48115 0.02000
-2.68981 1.10650 0.73243
-2.40925 -1.13683 0.09500
-0.32764 3.76049 0.00000
-1.54385 -2.90480 0.69040
-3.92113 -2.37385 0.02000
1.31385 2.47576 0.02000
-1.59932 -3.26765 0.02000
1.81408 3.36519 0.00000
-2.42977 -0.47849 0.02000
0.76087 4.79360 -0.00000
-2.68981 1.61302 0.06949
-2.68981 -1.39981 0.37439
-1.75781 1.83410 0.52447
-1.43974 -3.05654 0.02000
-1.24260 -2.93680 0.81150
1.32247 3.98381 0.02000
3.01659 -3.60754 0.00000
1.58717 -2.75367 0.02000
2.50367 4.76210 -0.00000
2.25619 -0.65220 0.73858
3.10220 -1.46737 0.00000
-2.68981 -0.18327 0.43614
2.22419 -2.30431 0.27480
2.67706 2.07704 0.11200
-2.63580 1.78520 0.16625
-3.79113 3.22933 0.00000
2.90654 1.20452 0.07209
-1.98251 -2.41996 0.47000
-2.25732 1.26958 0.00000
-1.67880 1.04243 0.02000
-1.75781 3.88892 0.23843
-2.53408 -3.59277 0.02000
0.11231 4.91949 0.02000
-2.68981 2.80156 0.79317
3.03529 -2.03884 0.03600
-1.92072 -2.67693 0.24127
2.19119 2.41416 0.04367
-2.72181 1.38900 0.74744
-3.50942 3.77472 0.00000
-1.21002 -1.16212 0.02000
-0.26879 -3.41952 0.02000
2.25619 0.27654 0.63152
-2.76747 1.47152 0.00000
3.08256 5.06718 0.02000
0.32182 -3.86030 0.82000
1.86899 -0.08876 0.02000
1.99608 2.85560 0.02000
-1.37730 -3.86238 0.02000
-3.12984 4.61967 -0.00000
4.51602 -1.96272 0.00000
0.35030 -2.90480 0.57132
-2.65900 -0.79120 0.02000
-0.90063 1.64320 0.03600
-2.35449 -1.41012 0.00000
-4.15670 4.54502 -0.00000
1.16749 0.33849 0.00000
3.58384 -2.91043 0.00000
3.00210 -1.31392 0.02000
-2.38247 3.76497 0.02000
2.33852 0.66476 0.09600
1.70769 -0.44883 0.00000
2.80653 3.50708 0.02000
-0.85781 -2.24984 0.21484
2.57262 4.18210 0.02000
-1.17373 4.64870 0.02000
-0.06649 -3.40162 0.00000
-1.13873 0.88720 0.06703
1.37315 0.61896 0.02000
-3.74513 -0.68632 0.00000
0.92664 -2.93680 0.39053
2.49654 2.87257 0.02000
-2.00317 4.48459 -0.00000
0.12803 4.63323 -0.00000
-2.18876 1.81080 0.02000
4.24482 -2.92747 0.00000
2.26378 2.32243 0.11200
-1.57467 -3.72549 0.02000
-2.24509 -1.05601 0.02000
-0.81524 -3.57152 0.02000
3.39765 -3.62668 0.00000
0.88948 1.05801 0.02000
2.46796 -1.00709 0.02000
2.27500 1.56331 0.02000
2.92355 -0.88504 0.22497
-4.04587 3.19155 0.02000
3.17415 -2.62139 0.82000
3.09089 -0.68693 0.04286
-2.66460 -2.93693 0.20410
1.32419 2.55380 0.54882
0.35355 -2.54283 0.03600
-1.80310 -3.83693 0.23854
-1.66590 1.07439 0.02000
-1.75781 1.24733 0.68258
-2.43064 -1.96133 0.17000
2.89852 4.55434 0.02000
-1.51513 -2.73847 0.02000
4.03417 1.37632 0.02000
-1.81055 -2.78350 0.39500
-1.70557 1.60477 0.02000
-0.77456 1.55771 0.00000
2.52371 -0.58885 0.00000
3.18588 -1.20820 0.02000
-0.26354 -1.73914 0.02000
-2.72181 -2.24337 0.05502
-1.95631 -1.56713 0.09500
2.51093 2.76255 0.02000
-2.03653 2.09992 0.00000
0.06081 5.18298 0.02000
1.65620 -1.78279 0.00000
-2.69086 0.17016 0.00000
-2.99406 0.21650 0.00000
3.86488 0.42723 0.00000
-2.51387 -1.71320 0.02000
-3.73427 -3.04507 0.00000
-2.53519 -3.83693 0.12580
2.22419 -2.74301 0.62030
3.56163 4.47133 -0.00000
-1.09794 -2.00480 0.43857
0.72386 3.97112 0.00000
-2.10581 -3.09375 0.02000
1.32419 1.07415 0.76684
-1.78981 3.42398 0.57137
-2.56670 -0.07470 0.09500
-0.35119 -1.97280 0.03379
2.25619 -1.53432 0.55560
2.90206 1.14048 0.09600
0.13027 -2.01358 0.00000
-0.31025 -0.48876 0.02000
0.72972 -3.86893 0.60659
-3.07026 -3.79597 0.00000
2.20311 -2.25675 0.02000
-0.77449 -1.33849 0.00000
0.09457 0.24921 0.02000
-1.08430 4.38911 0.02000
-2.08581 1.18306 0.13793
0.76743 -0.31216 0.00000
3.69391 3.72848 0.00000
2.25619 1.73984 0.71327
-0.92037 -1.80389 0.32000
3.78331 2.23575 0.02000
-2.68981 -2.71483 0.22016
2.25619 0.30849 0.35028
3.18819 -2.89246 0.41136
3.18240 -0.42213 0.02000
0.19925 -3.83693 0.08424
-4.20581 -0.99663 0.01969
-1.62466 -0.40598 0.02000
-1.78981 -1.91046 0.58371
-2.18685 -1.53270 0.09500
-1.78743 -0.64111 0.02000
-2.68981 0.34582 0.04822
3.18819 -1.23196 0.10628
-1.83410 -2.41693 0.14114
1.34154 -0.41526 0.28232
-0.88835 -2.79130 0.02000
3.52409 3.23780 0.02000
0.31506 -1.35225 0.00000
3.15619 1.90612 0.04988
1.29219 3.35547 0.67526
1.60211 0.78320 0.12358
-1.75781 -0.89601 0.04695
0.71300 -3.86893 0.32376
-2.68981 -2.92045 0.32097
1.32419 -1.49279 0.21061
-1.08289 1.23917 0.02000
-0.82581 0.90569 0.78979
-0.11052 -2.90480 0.46232
-0.42697 -3.83693 0.57280
4.58487 -0.58037 0.00000
-0.85781 1.27043 0.43303
-3.16648 -0.13295 0.02000
0.45288 -3.32317 0.00000
3.15619 -3.40827 0.63124
2.22419 -2.09988 0.28800
2.25619 0.23753 0.63464
-3.47252 -1.01232 0.02000
3.33278 1.65684 0.00000
1.80619 -3.29180 0.02787
1.22651 1.38283 0.02000
-0.65560 2.82233 0.00000
-1.78180 -0.91246 0.82000
-1.78981 0.62066 0.63814
2.69118 1.31941 0.11200
3.15619 -1.18391 0.09255
1.84118 4.07853 0.00000
4.38813 4.76448 0.02000
0.83662 2.61875 0.00000
2.97342 -1.06528 0.02000
1.48249 1.64368 0.00000
-2.68981 -0.32313 0.69123
2.22419 2.05322 0.62407
3.96318 1.10375 0.00000
3.15619 0.10112 0.24721
-1.57789 0.77276 0.00000
1.29219 -0.99843 0.72216
-2.27681 -1.86235 0.17000
0.77118 3.96876 0.00000
0.32997 3.04783 0.02000
-1.78981 3.98080 0.57355
-2.68981 1.70320 0.48299
2.54837 -1.00687 0.02000
0.77665 -2.89910 0.03600
2.35048 1.80379 0.00000
-2.10224 -0.96974 0.02000
-0.85781 -1.79071 0.14214
-0.85781 0.28835 0.09343
-2.48588 -3.64050 0.47000
-2.36540 -2.47357 0.24500
0.37356 -0.49442 0.02000
1.40379 -2.50543 0.02000
-3.18963 -2.42291 0.02000
-2.00416 -3.14508 0.47000
-2.25237 -1.30285 0.02000
0.35849 -3.73445 0.02000
3.58812 4.85871 0.02000
1.22712 3.84183 0.02000
-1.97647 -0.56881 0.02000
-2.10626 0.90320 0.03788
-2.50656 -3.83693 0.36854
3.94860 -1.06594 0.00000
-1.44841 -1.63964 0.02000
-0.77419 -2.15022 0.00000
1.23414 -3.82138 0.02000
-2.35001 -3.24675 0.47000
-2.42106 -2.50639 0.02000
-2.54650 -1.74940 0.09500
2.30627 0.36931 0.02000
1.61218 -3.83440 0.00000
-2.02191 -1.70564 0.02000
3.27763 4.45564 0.02000
-3.10893 4.34142 -0.00000
-1.86233 5.02832 -0.00000
-0.49614 2.52444 0.00000
-0.92333 -3.62795 0.28594
-3.50601 -0.66643 0.00000
-0.85781 -0.12874 0.06388
2.68231 -0.03380 0.16216
1.87677 -0.59499 0.00000
-2.08581 0.52118 0.05397
2.01524 2.99988 0.02000
2.25619 2.00881 0.79540
2.19482 -3.83693 0.19361
-1.27412 -1.62216 0.17000
2.31853 -1.50184 0.02000
-0.85781 -0.67002 0.26559
3.45567 -0.06968 0.02000
-2.67381 1.43513 0.06864
3.18819 1.53893 0.20707
-2.47025 1.98417 0.00000
2.89018 -1.11312 0.02000
2.25619 1.21217 0.05878
0.56207 -0.19181 0.02000
1.61130 -3.82043 0.00000
2.95184 -0.64076 0.00000
-1.63745 -1.10895 0.17000
-1.44581 0.47375 0.13722
-1.73740 -0.44722 0.00000
-2.57677 -2.83792 0.24500
-2.49918 2.75479 0.02000
-3.60627 -1.83640 0.00000
1.31040 -3.64913 0.02000
-2.70235 2.55300 0.00000
2.25619 0.88464 0.80415
2.60134 0.85389 0.02000
-0.07257 -1.78138 0.02000
3.45191 -3.60286 0.00000
-4.10100 5.17468 -0.00000
1.32419 -1.42947 0.79163
-1.38817 -2.12978 0.00000
2.86605 -3.13766 0.02000
2.50470 2.18321 0.11200
2.22419 -1.16357 0.06193
-2.68475 1.23499 0.02000
0.41901 -2.90480 0.81677
-2.42968 4.79096 0.02000
-1.29801 -2.00480 0.15477
1.43932 -0.67757 0.02000
-2.74827 -1.50315 0.00000
-1.08138 0.34455 0.02000
-1.98004 -3.18039 0.02000
2.14791 -2.96931 0.02000
2.07952 5.19187 0.02000
1.22469 -1.91715 0.02000
0.63969 1.92092 0.02000
2.24258 -3.16587 0.00000
-2.68981 -1.57327 0.31524
-1.75781 -2.64962 0.50317
-2.72181 2.33531 0.17248
0.57524 -2.51499 0.00000
-1.60890 -0.60285 0.02000
-3.75786 2.19097 0.02000
0.57399 3.10556 0.00000
1.97451 3.14533 0.09600
-0.46711 -3.42679 0.17186
-2.67511 -2.98191 0.02000
-0.82581 -0.21330 0.27638
2.30338 2.46307 0.06974
1.98132 -0.43459 0.02000
-2.74334 -0.65234 0.00000
-2.72181 -1.50543 0.29791
-1.58571 -0.84368 0.02000
1.94908 -3.85550 0.82000
-1.20158 4.93160 -0.00000
-2.05055 -3.54941 0.02000
3.17478 -1.91670 0.02000
1.46940 3.27954 0.00000
4.22724 4.15266 0.00000
-0.23787 5.01763 -0.00000
-3.47022 -0.68810 0.00000
3.18819 -2.93552 0.28270
3.56528 -3.38549 0.00000
1.79431 3.93569 0.02000
0.95213 -3.86332 0.00000
3.42646 -0.76454 0.02000
1.51214 -3.13101 0.02000
3.38343 5.15880 0.02000
-2.49711 -2.56568 0.47000
2.01150 -3.38378 0.02000
3.17171 1.15250 0.02000
-0.79445 -3.66256 0.25371
-2.23241 -3.66822 0.47000
-4.12134 2.31118 0.00000
0.50911 -3.09954 0.02000
2.14252 -2.27112 0.02000
-1.78981 2.00587 0.55904
-0.82581 0.80275 0.15183
2.25619 -2.21736 0.22445
-0.96236 0.02120 0.06500
-1.81081 0.80668 0.12737
-0.15823 2.20871 0.00000
-0.23721 -3.61562 0.02000
-1.78981 0.53801 0.05703
3.15619 2.30594 0.32780
-1.75781 2.48857 0.80496
-1.05410 -2.90480 0.75295
1.38294 3.59900 0.02000
-2.22108 1.96452 0.02000
3.15619 3.34076 0.53537
-2.17857 -3.66569 0.00000
-0.84752 -3.86893 0.23089
-3.52515 -3.50471 0.00000
-2.31389 1.59373 0.00000
-1.92059 0.60051 0.18600
-1.82407 0.54356 0.02000
0.00890 -3.86893 0.08242
-1.07536 -1.61680 0.32000
-2.03882 1.02019 0.18600
-2.23509 -3.64551 0.47000
-1.78981 -2.22991 0.02137
-1.78981 1.55935 0.49613
0.23275 3.38012 0.02000
-3.41231 0.46770 0.02000
1.68748 -0.40872 0.00000
-0.89043 2.07690 0.00000
-3.83512 3.91321 0.02000
1.78048 -3.86893 0.13337
1.44326 0.97145 0.00000
2.98679 4.25074 0.02000
0.89603 -3.19381 0.03600
-2.34966 -2.62598 0.02000
-2.50718 1.48677 0.02000
-3.55373 1.22171 0.00000
-1.78981 0.80425 0.31546
2.22583 -1.70718 0.82000
2.44638 -2.34480 0.02000
2.42431 -1.68750 0.02000
1.83809 3.13585 0.00000
1.32419 1.16109 0.27207
2.22419 0.62255 0.71010
-0.40519 -2.07226 0.02000
1.75113 1.47637 0.02000
-2.11991 0.52654 0.02000
3.10714 4.86111 0.02000
2.75236 -1.32074 0.18040
0.91437 -3.10852 0.02000
1.50431 -0.90198 0.00000
2.61320 2.21136 0.02292
-1.79416 2.01588 0.00000
-4.17845 -0.44185 0.02000
-1.89055 -2.00009 0.09500
0.41376 -2.93680 0.72045
2.01006 -0.86210 0.02000
3.15619 0.80261 0.38284
-3.38769 2.25514 0.02000
1.08658 -1.42775 0.00000
3.18819 0.50164 0.02862
2.75833 -2.53119 0.02000
2.13694 3.15871 0.09600
-2.70315 -3.12323 0.00000
4.17208 0.04300 0.00000
1.72455 -0.85706 0.03600
2.53765 -0.29230 0.00000
-2.54330 -2.02788 0.17000
2.20980 2.27762 0.09600
-0.85781 -2.67183 0.11830
0.63133 -2.37365 0.02000
-3.76622 2.60938 0.02000
-2.68981 2.29336 0.19217
-1.78981 3.10221 0.24277
-1.79006 -0.05461 0.02000
3.18819 3.99283 0.44073
0.41910 0.84776 0.02000
-3.68337 3.34893 0.00000
-1.15181 1.71786 0.05395
0.29852 -1.03025 0.00000
3.15619 0.61361 0.54499
-2.78616 2.69507 0.00000
-1.47876 -3.64551 0.02000
-2.78989 3.19326 0.02000
-2.57491 -1.75069 0.17000
-0.85781 -1.39138 0.27295
2.44763 4.21044 0.02000
-1.75781 -1.12827 0.65544
-1.74051 -1.87439 0.47000
3.32148 4.21456 0.02000
2.90698 4.85446 0.02000
0.59951 2.86591 0.00000
4.56584 0.52698 0.00000
3.59433 -0.48956 0.02000
2.15901 0.39364 0.02000
2.73952 -3.83693 0.80660
2.49803 4.53607 0.02000
-2.39881 0.74084 0.12083
2.73381 -2.88727 0.02000
-1.43950 4.19998 0.02000
3.61226 -2.72740 0.00000
-1.14332 -1.94542 0.02000
2.54883 -3.53851 0.02000
-1.13972 4.61911 0.02000
-0.85781 0.74300 0.17644
1.32419 -1.97372 0.59104
-1.04702 -0.18511 0.02000
0.73199 -1.24135 0.00000
-2.29282 -2.32173 0.17000
-3.33757 3.87427 0.02000
-1.49033 2.89147 0.02000
1.06586 0.94463 0.02000
4.49111 1.45764 0.02000
-1.49461 1.05500 0.02000
1.76886 0.74758 0.00000
2.66286 2.36500 0.02000
-3.27080 0.34864 0.00000
2.60982 -1.27054 0.14329
-2.59819 -0.64341 0.00000
1.38024 0.20241 0.02000
2.10658 1.45620 0.05569
2.47775 1.48343 0.09600
1.39430 2.46307 0.09234
-1.21223 1.16200 0.02000
-1.85917 -1.63693 0.04389
-2.52330 0.88420 0.07972
-0.24481 -2.48342 0.02000
-1.11706 -2.47825 0.00000
1.59926 0.83722 0.12284
-2.77395 -2.75961 0.00000
-2.91366 0.92305 0.02000
-1.58039 -0.44812 0.02000
-2.67381 1.03452 0.14192
-1.75781 -0.97944 0.32029
-2.48135 0.00520 0.11914
0.47162 3.35867 0.02000
-1.80821 -2.26518 0.00000
-1.23461 -1.49224 0.02000
1.32419 3.67404 0.41338
-3.82947 0.58805 0.00000
2.33700 -3.86893 0.34130
-2.23035 -3.83693 0.48964
-0.03330 -0.16725 0.02000
-3.69188 2.39142 0.02000
-1.31947 -3.73747 0.38500
-1.80781 1.07867 0.12974
2.58350 -2.62839 0.03600
4.19725 3.72451 0.02000
1.95203 3.49452 0.00000
3.15619 3.88710 0.21913
-2.45732 -2.01623 0.17000
1.29219 1.26781 0.72369
2.04622 -0.88520 0.02000
1.08886 0.84081 0.00000
2.67915 -2.26976 0.03600
2.25619 0.60685 0.72120
2.05151 0.11833 0.02000
1.74649 1.89980 0.02000
2.43903 0.17636 0.02000
-1.10134 0.48634 0.00000
3.08204 2.45760 0.09600
-0.96348 2.65340 0.02000
2.22419 0.74496 0.67620
-1.15181 0.84435 0.04744
-0.62187 0.27321 0.00000
2.08584 4.04573 0.02000
1.29219 2.32424 0.45754
3.88010 5.09400 -0.00000
0.54578 2.01228 0.00000
0.35449 4.70932 0.02000
3.67104 0.80201 0.00000
3.05243 2.50266 0.02000
-0.98876 1.79325 0.00000
1.32419 3.57687 0.05184
1.90075 -3.85393 0.02000
2.69935 -0.89258 0.02000
-2.72181 3.55771 0.49442
-0.45483 -3.25502 0.16879
-0.85781 1.45444 0.41645
-1.81074 -1.65492 0.09500
2.25248 -1.51032 0.02000
-2.02421 3.68754 0.00000
1.66533 -2.93680 0.72040
0.01247 -2.66597 0.02000
-1.78981 2.91219 0.31894
1.32419 -0.56659 0.06978
-2.40270 -1.57630 0.17000
3.16206 1.05185 0.02000
-0.85781 -1.09557 0.77303
2.63370 2.57408 0.00000
3.15619 -1.03580 0.31818
-1.86809 -2.50882 0.47000
2.65848 1.15700 0.11200
-2.81326 1.14014 0.02000
-3.99614 1.05824 0.02000
1.01643 -3.29931 0.02000
-3.46086 0.19104 0.00000
1.94620 -2.93680 0.25642
2.13843 5.22407 0.01787
2.22419 2.14056 0.58933
0.48288 -2.90624 0.82000
-1.30054 -2.00480 0.17475
-3.91764 1.78130 0.02000
2.56467 -0.69854 0.02000
2.25619 -0.77223 0.18920
-0.80055 4.68429 -0.00000
1.32419 0.55452 0.36122
-1.27677 4.96613 -0.00000
-2.08665 1.55458 0.02000
2.39252 -0.37150 0.02000
-0.26645 -2.14647 0.00000
1.82105 2.06222 0.11200
2.20151 -2.55487 0.00000
1.29219 -1.70702 0.54587
-2.47550 -2.61444 0.02000
-2.72181 -1.27978 0.54715
0.71132 -0.19127 0.00000
-4.10362 1.21365 0.00000
-0.75541 -3.86893 0.55661
-1.81081 0.98533 0.06763
-0.90982 -2.00480 0.28255
-2.68981 -0.78695 0.39135
-2.15622 -2.32614 0.02000
-3.15541 2.37184 0.02000
1.57936 1.41562 0.03600
-2.97815 4.61868 -0.00000
-0.85781 -0.96065 0.51385
-1.48720 2.27157 0.00000
-0.85781 1.46799 0.12300
-3.04378 2.23459 0.02000
-1.22638 0.91920 0.09769
-2.27446 -0.46600 0.00000
2.26123 -0.79958 0.00000
-0.74074 -3.43125 0.00000
-2.26799 1.94004 0.02000
-1.75781 -1.05345 0.03774
2.24071 -2.04783 0.02000
2.00105 1.21064 0.02000
1.28078 -3.49529 0.00000
1.85932 -3.86893 0.66564
1.44145 -2.90480 0.50624
-1.73981 0.73832 0.03965
2.56017 2.37169 0.11200
-1.17081 1.31597 0.13334
-1.98631 0.85502 0.03600
-2.54295 -2.93693 0.33206
-1.71167 0.02120 0.14229
0.74991 -2.83144 0.03600
1.50441 -3.81978 0.00000
-2.30147 0.59020 0.16807
-2.72181 1.94454 0.73954
-1.01692 -0.87793 0.02000
-2.68981 -0.21137 0.67938
2.22419 -2.17977 0.36740
-3.42728 -1.71879 0.02000
2.29121 0.74345 0.02000
0.30116 -3.82967 0.02000
2.33318 -2.27564 0.00000
-0.77564 -1.23007 0.00000
-3.69526 2.51615 0.00000
3.01149 -3.64484 0.02000
-1.46181 0.63608 0.15153
-1.75781 2.67954 0.28749
-2.72181 -0.54556 0.24146
-2.37499 -3.04727 0.02000
2.26588 -3.71044 0.00000
1.09329 -0.18254 0.00000
0.30942 -2.54373 0.02000
1.40829 5.17460 0.02000
3.59856 2.64063 0.00000
2.55163 -1.79188 0.02000
3.51269 0.33684 0.00000
-1.49958 -1.48480 0.32164
2.60758 3.96276 0.02000
-0.54329 -2.90480 0.31101
1.02186 -2.30701 0.00000
-2.25311 -0.37887 0.00000
-2.31432 1.59654 0.02000
-0.30018 -2.77005 0.02000
3.60188 -3.19562 0.00000
0.03886 -2.00480 0.09226
3.18819 -2.59340 0.30833
1.08135 0.00729 0.02000
2.29419 1.56247 0.05037
-1.52001 4.22577 0.00000
0.33925 -3.08568 0.03600
2.22419 0.17565 0.13336
-2.24034 -3.22492 0.00000
1.32419 2.31307 0.73484
-2.65420 -3.47842 0.47000
-0.60135 -2.82467 0.37479
1.51646 1.18106 0.02000
-2.37981 1.58938 0.10291
1.95445 0.92865 0.02000
-2.72181 -1.35209 0.67971
-2.50439 0.31520 0.04887
-2.27988 -2.01285 0.24500
-1.55998 -3.53995 0.00000
1.60314 0.73282 0.02000
-3.94917 2.78216 0.00000
-2.68981 3.58989 0.12819
2.74580 1.35396 0.02000
-2.03332 -1.07187 0.02000
3.80799 -1.27680 0.00000
-3.57883 -2.74622 0.00000
-0.82581 1.89515 0.60015
-1.88083 -0.64293 0.02000
-1.75781 -1.48497 0.65380
3.07598 -2.57483 0.03600
-2.68110 1.29985 0.02000
-1.75781 1.44223 0.70036
-1.32218 0.95102 0.02000
3.15619 -0.32000 0.65571
-0.19453 -2.00480 0.16566
-1.09917 0.83600 0.02000
-4.18294 -3.26602 0.02000
-1.65134 -3.34406 0.00000
0.84405 -2.68836 0.00000
3.66665 -2.34103 0.02000
-1.20144 0.52813 0.03600
2.09697 -3.83693 0.73740
0.01045 -3.04574 0.00000
-1.78981 1.73342 0.81118
-1.60554 -3.86893 0.76867
3.18819 -0.82962 0.36191
-0.82581 1.60046 0.50746
-3.17033 2.49324 0.00000
2.47506 1.63451 0.00000
1.32419 1.64950 0.47114
-0.73656 4.67858 -0.00000
-1.14465 -2.56766 0.02000
-2.40816 3.78678 0.00000
1.46073 -3.86893 0.05186
-0.65148 -0.66758 0.00000
-1.68110 -0.14259 0.02000
-3.19065 -1.35793 0.00000
-2.36467 2.80537 0.02000
-1.55673 -1.48480 0.34511
2.74050 1.45623 0.06189
-1.03930 -1.52284 0.47000
4.11282 2.72948 0.02000
3.15619 -1.22902 0.06461
3.99682 3.85697 0.02000
2.25619 3.79166 0.73687
1.47147 1.45620 0.11138
-3.52619 2.78939 0.00000
-1.92343 -2.48696 0.09500
2.28145 -3.86893 0.10589
1.59299 -3.86893 0.63118
2.22419 3.68542 0.49995
-0.90554 -1.14647 0.00000
3.18819 2.77988 0.60983
1.65172 2.04046 0.11200
1.53533 3.57210 0.02000
-1.84526 0.03510 0.18600
-1.64160 -2.71648 0.02000
2.00119 -3.16102 0.02000
-1.26354 -0.37695 0.02000
0.03681 -3.83693 0.63259
2.83881 5.01419 -0.00000
0.59928 -2.89409 0.02000
2.32715 1.68021 0.09600
-1.87585 -2.71307 0.09500
-4.13971 -2.82232 0.02000
-1.15181 0.83996 0.04606
2.50923 3.21610 0.02000
1.42217 2.86021 0.00000
2.25619 0.59739 0.60907
-1.78981 2.41111 0.58771
-2.17606 -3.36739 0.02000
1.32419 -1.05114 0.09011
3.18819 -3.04226 0.39804
1.40006 -0.71609 0.02000
3.08516 3.53036 0.00000
-2.32116 1.88817 0.00000
3.89639 -1.96434 0.02000
-2.68981 2.84950 0.16092
-1.67965 -2.23730 0.47000
-1.24016 -1.27900 0.02000
2.25619 -0.40201 0.47782
4.43946 2.97148 0.02000
3.68435 1.66295 0.00000
-3.55926 1.97305 0.00000
-2.37981 1.00619 0.11892
-1.73981 0.94241 0.14351
3.15619 -2.75333 0.75102
-1.58614 1.18090 0.03600
4.48664 -0.72756 0.00000
-4.15244 -0.13625 0.00000
-3.60180 -1.18131 0.00000
-3.88698 5.03293 0.02000
4.40289 -2.77470 0.00000
-1.51888 -2.93680 0.54657
-2.07118 -0.14293 0.09500
-1.78981 3.04251 0.25495
1.87280 0.28140 0.00000
-1.15274 0.96658 0.00000
0.16481 4.08059 0.02000
-0.85781 -1.23167 0.02812
1.32419 3.67573 0.80875
-2.45481 0.64908 0.00000
-1.75781 2.97090 0.40242
2.21057 4.97013 -0.00000
-0.97437 -2.20249 0.02000
-0.90069 -2.93680 0.63717
2.78555 -1.39908 0.00000
1.25153 -3.76614 0.03600
2.53356 -0.68693 0.07520
0.07006 -3.83693 0.05384
-3.78945 -3.48766 0.00000
3.18819 0.65103 0.62405
3.19166 -3.66274 0.02000
2.33409 -0.02289 0.02000
3.15619 -1.50387 0.38102
-1.75781 3.26532 0.46754
1.10286 -3.47342 0.03600
2.29419 2.42015 0.05674
2.25619 2.46975 0.43807
2.15131 -2.00147 0.03600
-2.57912 -0.18183 0.02000
-2.72181 -1.82737 0.54170
-2.68981 1.45839 0.69509
-1.78981 -2.91421 0.53039
3.07331 -3.65103 0.00000
3.15619 -3.07616 0.67782
-2.68981 -3.29789 0.49345
-2.88042 0.79415 0.00000
-2.67429 -3.13785 0.02000
-1.04834 -2.00123 0.47000
-1.78981 0.47012 0.42185
0.11247 -2.77418 0.02000
1.73926 -2.07755 0.03600
-0.82581 1.90143 0.07538
1.29219 3.34531 0.81422
2.05397 0.80531 0.00000
-0.85781 1.29532 0.45540
0.73758 -3.86893 0.39671
3.15619 0.49337 0.51930
2.04789 2.43749 0.09600
0.51228 4.27874 0.02000
-1.75781 2.99816 0.09837
-3.88092 -2.07034 0.00000
-4.04127 1.14911 0.00000
1.78759 -1.98052 0.00000
-1.90228 4.41681 -0.00000
4.63235 2.91148 0.02000
-0.82581 -0.39721 0.65533
4.08694 3.73672 0.00000
-1.78981 -0.50088 0.37483
3.71580 2.45881 0.02000
-0.16096 1.74164 0.00000
-3.88766 -2.66264 0.00000
1.29219 1.28834 0.03069
-0.55983 3.90798 0.02000
2.34005 -2.30333 0.02000
3.98604 2.91842 0.00000
4.43232 0.88138 0.02000
2.78593 -0.82263 0.02000
-2.68981 0.30699 0.35398
0.57586 -0.24586 0.02000
2.71451 -3.83693 0.34138
2.19119 2.44933 0.07380
0.73996 -2.64424 0.02000
-2.07598 -1.92245 0.32000
1.13828 -2.67796 0.02000
0.34393 5.06428 0.02000
2.45024 -1.23513 0.10175
1.95242 -2.61750 0.00000
-2.49581 -0.05336 0.00000
0.48177 -2.93680 0.33810
2.70871 3.27876 0.02000
0.14861 -0.60695 0.00000
2.66230 -3.28638 0.02000
1.97606 2.71478 0.06066
-2.68981 0.33341 0.52319
-2.68981 -1.57658 0.02292
-3.70911 -0.61021 0.00000
0.64117 -2.00480 0.43857
-0.35139 -2.22388 0.02000
3.07741 5.16336 0.02000
2.25619 4.04458 0.70358
3.81560 -0.73444 0.02000
-2.72181 -1.24535 0.03721
2.48597 0.33954 0.03600
1.29219 -1.53472 0.12533
-2.68981 -1.92233 0.02604
2.96571 -3.10732 0.00000
-2.68981 -3.48988 0.76561
-1.09521 -0.33302 0.00000
0.87436 -2.09109 0.00000
-1.64965 -0.45335 0.02000
1.61491 0.09446 0.02000
3.62898 3.98106 0.00000
1.58703 1.36577 0.03600
1.29219 -0.80175 0.26485
1.34539 -1.61060 0.03600
1.90717 3.26401 0.02000
3.18819 3.08785 0.50337
3.93763 0.35878 0.00000
-1.78981 -3.31792 0.12327
-1.75781 -1.95417 0.09947
0.02564 -2.93680 0.40416
-0.82581 0.84568 0.62718
-0.85781 3.79341 0.80636
-2.08581 0.19583 0.04399
-0.82581 3.26280 0.28890
2.70636 -3.43268 0.02000
0.98119 -2.93680 0.45210
-0.42752 -0.49905 0.00000
-2.08581 0.05912 0.18022
-3.04967 -2.46290 0.00000
-1.52374 -1.74480 0.23479
-0.05029 -3.11469 0.02000
-2.71125 -3.83693 0.27134
-0.10737 -2.90480 0.33476
0.44673 -2.00480 0.44051
-2.68981 -0.67681 0.31771
1.31927 -2.80464 0.03600
3.02907 0.95799 0.09600
-2.93968 1.03935 0.00000
-2.72181 -2.96259 0.05264
-1.78981 0.41763 0.18158
1.76083 -1.14886 0.02000
-2.61311 -3.83693 0.27278
2.88673 3.32855 0.00000
-1.92961 3.87309 0.02000
-1.75781 1.36440 0.71256
1.32419 0.61281 0.15946
1.49345 5.04260 -0.00000
2.96064 1.66708 0.09600
-1.70018 -1.37662 0.32000
-1.78981 0.09077 0.07872
-2.11681 2.41944 0.00000
-2.67381 1.58808 0.09325
2.08329 -2.93680 0.27994
2.25619 -0.30911 0.17541
0.26833 2.86660 0.02000
1.72983 -0.88296 0.02000
3.29790 4.68488 0.02000
1.68082 2.36690 0.02000
2.65537 -0.39546 0.15515
2.97678 0.69745 0.02000
2.37857 2.74365 0.02000
3.15619 -1.42653 0.15769
2.22419 4.07260 0.49903
2.83018 2.21358 0.02000
-4.02433 -0.64050 0.02000
0.62063 -2.59798 0.02000
3.07089 0.59288 0.00000
-1.75781 -2.62401 0.56346
-1.39633 1.32576 0.02000
-3.50785 3.55944 0.02000
-1.80781 0.32752 0.09236
-2.77424 4.97010 -0.00000
-2.68981 0.86116 0.72651
3.13476 -3.53039 0.03600
2.22419 3.60077 0.33554
-2.72181 1.31200 0.78695
3.24708 -3.14964 0.02000
-2.58612 0.90320 0.08023
-2.35777 -2.41693 0.26872
-3.48758 -2.16861 0.00000
3.40442 2.85393 0.00000
-3.66513 -1.58527 0.02000
-2.72181 -0.04944 0.74977
1.09605 -2.02504 0.00000
1.18339 -2.00480 0.15858
3.37905 2.04445 0.00000
-1.81375 4.18300 0.02000
3.15619 1.75091 0.25705
4.19891 0.58244 0.00000
0.25162 -2.49650 0.00000
2.37367 -1.38640 0.02000
-2.05243 1.19720 0.16043
2.28565 -0.40241 0.02000
0.48840 -3.18719 0.03600
-1.55904 0.59320 0.04738
2.68147 3.79397 0.02000
-2.68981 -0.41300 0.28545
4.55194 -0.55372 0.00000
-4.03427 -3.15250 0.00000
-2.68981 -1.02371 0.57763
-1.18089 4.13172 0.00000
2.56491 1.95107 0.09600
-2.48187 -2.68965 0.24500
-0.74469 -2.00480 0.53204
-3.09734 3.72122 0.00000
-2.43066 0.00520 0.13351
-3.97723 -1.09326 0.00000
-0.99626 0.00520 0.05560
-2.63960 2.80997 0.00000
-2.34809 -0.32984 0.00000
-2.68981 3.89196 0.75074
2.82197 -2.99185 0.02000
3.18819 1.60164 0.56122
-1.14378 -0.32540 0.02000
-1.36704 -0.17843 0.09500
-1.39490 -2.19672 0.02000
0.11406 0.59084 0.02000
-0.79217 4.08742 0.02000
-1.17736 2.41884 0.02000
0.87419 -2.14749 0.02034
1.32419 1.27053 0.10755
-2.68981 4.09424 0.65934
-1.75772 -0.25095 0.00000
-0.96317 1.50720 0.16742
1.36020 4.07940 0.00000
-4.20159 -3.10404 0.02000
-1.35119 0.27245 0.03600
2.22419 3.55389 0.74322
-1.84465 0.11427 0.18600
2.22419 -1.51438 0.68938
-0.01699 -2.00480 0.47830
0.82755 -3.83693 0.08945
0.62724 1.87444 0.02000
2.56833 0.63780 0.03600
-0.72570 -0.08334 0.02000
0.66540 1.72382 0.02000
4.25018 4.16859 0.02000
0.70464 -1.97280 0.34533
2.25619 -2.30304 0.48595
1.44061 0.73053 0.02000
3.31212 -1.17582 0.00000
-2.68981 0.02081 0.46240
-0.92106 -1.49915 0.47000
3.22653 -2.00734 0.00000
-0.82581 -0.46617 0.21405
2.29506 -3.51981 0.00000
-0.75257 -0.90965 0.00000
1.51773 2.31020 0.02000
-0.85781 3.21000 0.49574
-0.04851 -3.86893 0.31909
2.54957 -1.88555 0.02000
-0.34594 -3.80274 0.02000
0.83328 -2.54340 0.02000
-1.75781 -1.29432 0.74072
2.25619 1.32433 0.41498
-2.55163 3.25342 0.02000
-1.68741 2.59311 0.00000
1.29219 0.90617 0.72215
1.60810 1.49300 0.09600
-0.85781 1.73300 0.37713
1.77277 2.52517 0.11200
0.78929 -2.90480 0.14726
-0.50662 -2.80674 0.02000
2.25937 -2.61504 0.00000
2.03646 4.56276 -0.00000
3.15619 0.61613 0.47939
2.38726 0.58068 0.02000
-1.78981 -2.52789 0.24951
1.29219 3.31605 0.48763
2.87202 1.70794 0.05050
1.21603 -3.83693 0.35268
3.10337 1.46366 0.02000
-1.79181 0.49274 0.17145
-2.65192 -3.86893 0.32465
2.34210 3.27711 0.00000
-0.41713 2.05366 0.00000
0.58526 0.48239 0.00000
-1.11818 -1.91188 0.02000
3.18819 -2.59049 0.09090
-3.92277 -1.48401 0.02000
-1.78981 -2.71056 0.51871
-2.33110 -2.40376 0.17000
-2.13159 -2.15693 0.21839
2.22419 -0.10220 0.56568
-3.98880 -1.07420 0.02000
2.70232 2.03718 0.09600
3.18819 -2.54986 0.66516
-2.17006 -2.73519 0.17000
0.27782 -2.00480 0.74965
2.22419 0.12586 0.19329
3.74463 -2.41789 0.02000
-1.36644 -2.00480 0.08900
1.49734 0.83228 0.02000
0.47592 -2.71390 0.02000
3.47973 -2.30783 0.02000
-2.15493 1.42439 0.00000
4.50138 2.55969 0.00000
-1.32543 2.08040 0.02000
0.49110 2.12720 0.02000
1.53212 3.00449 0.03128
-1.52399 0.82211 0.03600
3.18746 -0.75392 0.02000
-1.96059 -2.10161 0.24500
-2.24608 0.05941 0.02000
1.29219 0.15339 0.18126
-1.75781 3.38812 0.55946
-1.93518 -1.35414 0.09500
3.15948 -3.74085 0.02000
-1.78981 -3.36517 0.29242
-2.68981 4.18133 0.51867
-1.81424 -3.02754 0.47000
0.29028 -1.61440 0.00000
0.11753 2.18245 0.00000
-2.95671 0.66967 0.00000
0.84633 3.56213 0.02000
-0.51862 4.66741 -0.00000
-2.71877 1.77429 0.82000
-0.82581 -0.67709 0.51969
-0.24314 2.19756 0.00000
-3.20233 3.00068 0.02000
-0.53831 4.90032 0.02000
-0.65603 -2.07825 0.02000
2.53859 -1.20653 0.02000
1.25514 -2.00480 0.56528
-1.73446 -1.43512 0.02000
-3.22981 5.18501 0.02000
2.62604 -0.40192 0.14751
2.24456 -3.86893 0.12251
-1.66930 -2.90480 0.42358
1.69188 -3.83693 0.69890
-1.33859 0.31520 0.13309
-1.99737 1.74498 0.03600
2.34641 -3.12183 0.02000
2.03924 -0.25473 0.02000
-2.72181 2.15442 0.69586
1.87032 5.12285 -0.00000
-0.18553 -1.97280 0.04170
2.00267 -0.30195 0.11020
-1.78981 -3.35719 0.09454
-1.91743 -1.81260 0.02000
2.25619 2.56876 0.80372
-2.28262 -1.78426 0.09500
2.74719 -3.83693 0.58807
-1.25336 1.42758 0.02000
-1.78981 1.57514 0.81986
-0.93382 -2.90480 0.02309
-2.28388 -3.17926 0.02000
-3.91806 2.48837 0.02000
0.07166 -3.83693 0.33250
-0.50981 4.78223 0.02000
-0.62884 5.18183 0.02000
3.15619 0.61988 0.63629
3.15619 -2.98259 0.51683
-1.82886 1.61004 0.00000
1.52188 2.86676 0.02000
-2.71937 0.09227 0.02000
-2.72181 -0.96858 0.06078
2.25619 2.70825 0.57117
0.00506 -1.63950 0.00000
0.26980 -0.44663 0.00000
-1.88292 1.90888 0.00000
-3.55452 -3.73261 0.00000
1.14978 0.04172 0.02000
0.15235 1.28169 0.02000
-2.68981 -0.04620 0.66640
-2.05420 -2.15693 0.05529
0.15842 2.54863 0.02000
-1.78981 -2.70699 0.38180
2.97526 3.75995 0.02000
3.71901 0.55370 0.02000
-1.08789 0.87730 0.03600
1.24464 -0.69706 0.02000
1.77804 -3.17203 0.03600
1.44554 -0.57181 0.00000
1.95774 -0.54478 0.00000
2.91855 1.07456 0.02000
-2.17337 1.33473 0.02000
2.24782 4.16307 0.15607
1.49376 2.77873 0.00000
-1.44581 0.40090 0.05414
3.24572 -2.95609 0.00000
-0.97127 -2.90480 0.03580
1.99863 -0.92508 0.02000
2.34746 2.02182 0.11200
3.15619 -3.06525 0.61076
2.25619 1.15216 0.74030
-0.82581 2.07292 0.77722
-0.03098 3.12673 0.02000
2.19459 -1.31321 0.03600
-1.78981 -2.35746 0.12300
3.06895 0.05786 0.02000
3.48221 0.90309 0.02000
-2.41591 -1.27796 0.02000
4.24575 -3.39348 0.02000
-1.78981 2.59543 0.51579
-2.68981 -1.33908 0.22556
-1.50269 1.09737 0.18600
1.05980 -1.28395 0.00000
1.93013 4.47241 -0.00000
-1.67632 -3.82863 0.02000
1.01542 -1.13949 0.00000
-3.76957 0.43621 0.02000
1.98978 2.89148 0.00000
4.53959 0.93281 0.02000
-4.16847 0.20327 0.00000
-0.85781 -2.55290 0.12912
3.25828 1.87288 0.02000
-2.31558 -1.41286 0.09500
4.31060 -0.19193 0.02000
1.03281 4.74615 -0.00000
-0.85781 -0.10712 0.07323
-0.10667 4.22266 0.02000
-0.82581 -1.43413 0.09541
-2.14013 2.04296 0.00000
3.53400 0.50910 0.02000
1.32419 -0.50743 0.39987
2.13679 -0.94591 0.02000
-0.00193 -1.41063 0.00000
3.15619 0.05279 0.15263
-0.66047 0.55131 0.02000
3.75829 -1.68022 0.00000
1.18682 4.66365 0.02000
-3.21347 2.14606 0.02000
-1.08384 -2.80818 0.00000
0.45088 4.52969 0.02000
2.29697 -3.81730 0.00000
-2.10864 3.28398 0.00000
0.21983 3.52380 0.02000
-2.67322 -3.25137 0.02000
2.38255 1.39118 0.00000
-1.75781 3.14136 0.71015
-1.75781 -0.23564 0.03954
-3.75247 -3.39027 0.02000
-2.68981 -2.41111 0.18106
2.25007 -1.57797 0.00000
-2.64955 -3.83693 0.29921
1.29219 -0.69451 0.65417
-0.27329 -0.53420 0.00000
-1.75741 -2.93680 0.19928
-0.80298 0.85592 0.00000
-2.21578 -2.15693 0.22171
0.80825 0.70666 0.00000
3.15619 -1.55649 0.53612
-1.81562 -0.46061 0.02000
-2.44685 -2.42903 0.24500
-2.04191 -1.42636 0.09500
-0.24455 -2.93680 0.23490
-2.68981 1.70279 0.53762
-2.57879 -3.83693 0.61768
-0.40784 2.41308 0.00000
0.47364 -2.89215 0.03600
3.16650 0.74011 0.02000
3.18819 -2.52860 0.50661
-0.82581 3.11678 0.73388
-1.22013 -0.94955 0.02000
2.03836 -1.27521 0.02000
1.12629 -3.25822 0.02000
-0.87647 -0.07856 0.02000
-2.72181 -2.70916 0.61712
-0.07091 -1.46045 0.00000
-2.82868 -3.05196 0.02000
0.31778 1.53831 0.02000
0.87419 -2.40896 0.02218
1.86484 -3.21551 0.02000
-2.71405 3.19182 0.02000
-1.39753 2.73877 0.02000
-2.54165 2.47143 0.02000
-3.10829 2.62676 0.02000
-2.81307 1.94516 0.02000
-1.46194 3.47036 0.02000
-2.04054 0.42616 0.00000
-3.50453 0.89400 0.02000
1.62203 2.46307 0.02507
-1.78981 3.28679 0.36180
3.36875 -2.96134 0.02000
-2.09152 -0.68873 0.02000
-1.75781 4.06312 0.66221
-0.41117 3.18203 0.00000
3.18819 1.80432 0.07265
-1.59120 1.49120 0.06210
-1.35449 -1.13148 0.00000
-0.36044 1.57799 0.00000
2.32909 0.07665 0.07021
-1.44282 -3.73038 0.41585
3.35256 0.93716 0.00000
2.78427 4.56675 0.02000
3.05323 1.47300 0.00000
1.92609 -1.68609 0.00000
4.40021 -3.20737 0.00000
2.41700 -0.34428 0.02000
-1.78981 3.24816 0.17210
1.43328 -0.66408 0.02000
-1.75781 2.06470 0.66957
2.50430 -3.02581 0.00000
-2.37981 0.71670 0.16670
-2.68981 2.54127 0.04150
1.29219 3.96422 0.41786
-0.65876 -2.98017 0.02000
2.38752 4.82208 -0.00000
-2.72181 3.76341 0.57462
-2.72181 -0.32870 0.74820
1.71448 -1.74560 0.02000
3.48900 -1.86819 0.00000
3.58130 -2.17963 0.02000
-1.16436 -3.54251 0.00000
-2.53973 1.78220 0.16271
-1.75781 4.04160 0.19681
-2.68981 3.55889 0.58395
2.25619 0.45775 0.69003
3.97425 3.40323 0.02000
-2.72181 -2.18518 0.41637
-1.67247 -2.99119 0.47328
-0.39937 3.01303 0.02000
2.17057 -0.97694 0.00000
0.64174 0.96935 0.02000
-0.46152 4.36783 0.02000
-2.68981 2.26293 0.31654
-0.39480 -3.00231 0.02000
-2.68981 1.12800 0.50309
1.32419 1.75167 0.29465
-2.55019 0.02653 0.00000
2.03396 -1.83195 0.02000
-0.47235 3.92578 0.00000
-1.78981 -3.57483 0.42003
3.18819 -0.14805 0.74677
-1.03553 0.09047 0.00000
-3.00981 4.87092 0.02000
3.70682 -0.64847 0.00000
-0.50978 4.42572 -0.00000
0.98531 -1.11949 0.00000
3.12264 -0.48466 0.02000
-2.51218 -3.83693 0.09923
1.83022 0.05479 0.00000
1.29219 -0.90033 0.23631
-2.13991 -3.83693 0.10309
-0.87255 -2.90480 0.35574
2.18819 3.16585 0.00000
-2.68456 5.15647 -0.00000
3.09372 -3.83693 0.49094
4.11162 -3.61477 0.00000
3.52385 2.79561 0.00000
-4.05390 2.02914 0.00000
0.33815 -3.13171 0.03600
-2.16275 0.59320 0.10756
-0.18945 -1.27570 0.00000
1.49779 -2.27005 0.02000
-2.20553 -2.86295 0.02000
3.57303 -0.48411 0.02000
3.18819 -0.59676 0.69262
0.64249 0.82328 0.02000
-2.75019 -2.21024 0.00000
1.18952 -1.00397 0.00000
2.22419 1.18811 0.51482
0.29241 -2.07642 0.02000
-2.68981 -0.57597 0.04355
1.72292 -2.93680 0.15883
-2.18971 -0.47567 0.02000
-0.88537 2.13986 0.00000
2.21939 1.36144 0.02000
2.22419 -0.81744 0.81814
1.29219 1.32739 0.44189
-0.85781 3.35472 0.30219
-0.20963 -1.97280 0.06278
3.15619 -3.66896 0.41568
-1.62963 -1.74480 0.24332
-2.67381 1.78376 0.10230
2.38844 2.68173 0.00000
-2.72181 -0.78474 0.70758
-0.85781 1.04048 0.76101
-3.89458 0.36499 0.02000
-4.13920 -2.59047 0.02000
1.96833 -3.86893 0.50477
-1.91099 0.91920 0.12726
3.05045 0.18638 0.25800
-0.55724 -3.86893 0.67450
-1.70914 3.05770 0.02000
-2.22654 -3.13987 0.00000
2.26721 2.86174 0.02000
-0.52945 4.18269 0.02000
-2.39581 0.77234 0.13475
-2.72181 2.94040 0.47167
-1.87972 -2.41693 0.14873
-1.78981 3.21285 0.41429
-0.90292 1.21320 0.07824
-0.11242 -2.28903 0.02000
-1.86025 -2.03161 0.00000
4.06876 -2.50696 0.02000
0.72806 -1.97280 0.08518
2.61303 -0.56710 0.00000
2.04607 1.45620 0.08842
-1.44865 4.30915 -0.00000
1.02264 3.15054 0.02000
1.35166 -3.15760 0.02000
-2.52971 3.85464 0.00000
-2.36275 -1.17729 0.02000
-2.25558 2.71889 0.00000
-3.42485 -3.37948 0.02000
0.23312 -1.30751 0.00000
-0.91113 0.53582 0.03600
2.04555 0.86211 0.23902
-0.82581 2.05613 0.02066
2.96706 1.66155 0.09600
0.17553 0.70581 0.02000
0.04219 -2.38467 0.02284
-0.18800 -2.90480 0.72606
-2.56849 -1.85599 0.02000
-2.65167 -0.36200 0.02000
3.15619 2.85025 0.72794
2.25619 -2.45814 0.50532
1.52545 -1.12596 0.00000
-1.15181 1.34310 0.07146
3.18819 -1.09348 0.13967
-3.57698 1.05676 0.02000
1.29219 -0.51057 0.06441
0.73838 -3.50411 0.02000
-0.87681 0.27667 0.17522
2.99977 3.42150 0.00000
0.08480 -2.90480 0.38310
-0.59041 -2.21959 0.00000
1.39741 1.34724 0.00000
-0.82581 3.64353 0.75826
1.96590 -0.24024 0.02000
3.15619 0.15281 0.09834
1.99867 -2.90480 0.20041
2.83714 -3.83693 0.25593
2.84142 0.91481 0.04143
-3.95366 -3.45429 0.02000
-1.04496 -3.62694 0.02000
-2.00884 -2.43923 0.32000
-2.37561 -2.67693 0.03342
-0.85781 1.74213 0.04023
-0.06054 3.97455 0.02000
-1.31311 -2.45525 0.47000
2.22419 3.61846 0.72465
4.47154 -3.01677 0.02000
-1.36404 1.65048 0.02000
-2.72181 1.82091 0.63639
-2.44292 -1.09314 0.03600
2.67805 -2.68715 0.02000
0.94277 3.99330 0.00000
-1.66545 -0.00747 0.02000
1.16185 0.91419 0.02000
-2.40976 -2.15693 0.03686
-2.06673 -3.83693 0.19030
-1.49283 4.30306 -0.00000
-3.49413 -2.03976 0.02000
-0.73116 -1.57367 0.00000
-1.75781 -1.44999 0.04065
0.54944 -1.97280 0.48839
1.32919 -0.68084 0.04260
-2.16223 0.11353 0.00000
3.76251 -2.25542 0.00000
-1.00930 4.45257 -0.00000
-0.04003 1.20326 0.02000
3.86247 4.79493 -0.00000
4.08535 1.48270 0.02000
2.25619 -1.30615 0.58141
-0.85781 -0.09301 0.43529
4.38257 -1.22286 0.00000
-2.72181 -0.18568 0.44177
-1.11807 1.80120 0.09967
1.92627 -3.38143 0.03600
1.31592 4.74577 0.02000
3.15619 -3.38335 0.36908
-1.10265 -2.90480 0.52057
2.52992 4.66189 0.02000
-3.95503 2.50260 0.00000
-2.72181 0.37452 0.55890
0.62967 -0.60108 0.00000
2.12487 -2.29053 0.02000
-0.82581 -1.19074 0.24556
2.30566 3.87552 0.00000
0.04219 -2.70418 0.04844
3.18819 0.15068 0.46463
-0.73367 4.36913 0.02000
-0.26262 2.19784 0.00000
-2.72181 0.56028 0.55806
-1.62501 4.78203 0.02000
1.36984 0.34027 0.00000
1.69793 -2.18357 0.00000
-2.65017 -0.05468 0.00000
0.76812 0.57238 0.00000
2.22419 -0.91896 0.29549
2.22419 -2.63294 0.56607
0.60654 -2.26135 0.02000
-2.68981 -1.31039 0.23769
-1.95207 1.30320 0.02000
-1.41852 2.67099 0.00000
3.11410 -1.10939 0.02000
2.40167 2.86452 0.00000
-1.78981 -1.82673 0.45739
1.48131 -3.59551 0.00000
1.35515 2.70458 0.09600
-1.17342 0.00520 0.02839
2.74401 -0.06235 0.02000
3.14777 0.11557 0.02000
-1.21976 -0.57025 0.02000
-3.16078 -0.27281 0.00000
-2.73332 -0.56662 0.00000
-0.04262 -2.87343 0.02000
-2.31902 -1.68003 0.09500
-2.42700 -3.83693 0.74995
-1.84028 3.92757 0.00000
3.15619 -1.22806 0.45728
-3.08566 0.32300 0.00000
0.85535 -3.86893 0.28412
3.18819 3.15398 0.78312
-0.85223 -1.50343 0.00000
-2.16460 -2.59875 0.02000
-0.85781 1.02340 0.56245
3.18819 -0.33854 0.31012
2.44271 1.35149 0.02000
-1.82685 -2.93693 0.05517
-2.33744 -2.22695 0.24500
-4.12794 3.10226 0.02000
1.32419 -0.45944 0.76961
2.17367 3.28518 0.02000
2.25619 -0.28183 0.30739
-1.66812 -1.25783 0.02000
-2.75866 -2.33945 0.02000
-2.29483 -1.89693 0.11477
-3.12773 2.76521 0.00000
-4.03894 1.01263 0.02000
0.91313 1.69825 0.02000
0.08879 -0.32098 0.00000
3.84031 4.59041 -0.00000
-2.49682 -1.43927 0.02000
2.98225 -3.78740 0.03600
-2.16481 -2.72773 0.09500
1.29219 0.02690 0.62667
3.50168 5.08713 0.02000
-1.75781 3.62154 0.40830
3.02034 0.70107 0.03265
-1.78981 -2.12340 0.54883
-1.53320 -3.47421 0.00000
4.20886 -1.12280 0.00000
2.49433 3.20665 0.02000
-0.82581 1.56037 0.16993
-2.67754 -0.09886 0.00000
-0.72628 -3.26912 0.00000
-1.78981 2.52090 0.10540
2.09676 0.46094 0.25235
-1.49011 -2.90480 0.71486
3.37340 -2.32972 0.00000
3.72578 0.57658 0.00000
-3.31739 -0.39572 0.02000
-2.53836 -2.37610 0.09500
-2.52373 -3.20427 0.02000
1.69668 1.74533 0.02000
0.05079 0.44811 0.00000
0.10421 -0.68641 0.02000
-1.78981 -2.79216 0.38269
3.01476 1.51578 0.11200
-2.72181 -3.44526 0.14887
0.02385 -1.74501 0.02000
2.17424 0.92612 0.00000
0.46665 3.23493 0.02000
2.82133 -0.98801 0.19835
2.25619 3.43311 0.30281
1.56073 4.92142 0.02000
3.18819 -2.04962 0.17073
-1.92181 0.44915 0.02000
0.91244 -2.00480 0.04879
2.21004 2.04626 0.00000
-2.19957 -2.87869 0.09500
1.32919 -0.75395 0.14950
-1.14508 -3.07963 0.02000
-0.40179 -2.93680 0.34460
2.48180 -3.86893 0.61248
-0.74185 3.70937 0.02000
2.25619 -2.43053 0.64126
-0.85781 -1.26719 0.51184
0.88539 4.03255 0.00000
-0.18612 -3.29133 0.00000
3.00463 2.32880 0.00000
3.18819 3.66132 0.69664
2.24279 -3.86893 0.79560
2.11427 4.95606 -0.00000
-0.85781 -1.20566 0.15760
3.32734 -3.84808 0.02000
1.29219 -1.68247 0.15865
3.15619 0.90845 0.69696
-2.68995 -3.83693 0.59896
-1.05342 0.17423 0.03600
-1.50299 1.19720 0.05773
1.32419 -1.44113 0.16119
-2.72218 2.62328 0.02000
-2.72181 -3.20715 0.54239
1.21218 1.58471 0.00000
-2.05495 -0.92875 0.03600
4.63190 -3.15089 0.00000
-2.70684 -0.73191 0.82000
1.30383 3.51226 0.00000
-1.17335 -3.78318 0.02000
-2.45015 -2.29372 0.09500
1.35770 -0.04165 0.02000
2.22419 0.05770 0.38595
-1.80860 -3.56501 0.00000
1.09074 -2.79572 0.00000
-1.75781 -1.51736 0.52316
3.99195 4.06454 0.02000
-3.54562 3.93811 0.02000
3.15619 -1.68379 0.78530
-1.35921 -3.51101 0.39494
-0.93300 1.39332 0.02000
-2.72181 1.25213 0.53134
1.25044 -3.40105 0.02000
-2.19875 0.15175 0.03600
-0.89717 1.19420 0.06312
-3.38519 -1.91604 0.02000
1.90855 3.83156 0.02000
-1.36156 -1.52069 0.17000
2.11240 1.56526 0.00000
-1.75781 3.24181 0.34287
3.37893 -1.27868 0.02000
-1.78981 -0.57290 0.54118
0.33412 2.88421 0.00000
1.59253 0.28247 0.02000
2.49366 -2.99547 0.02000
-0.47531 4.44308 0.02000
-3.44489 4.09747 0.00000
1.32919 -0.06483 0.10130
-1.09390 -1.51790 0.32000
-0.86927 -0.98187 0.02000
-0.90585 -2.93693 0.13437
1.67297 3.94438 0.02000
3.15619 2.41498 0.55246
-0.16291 -2.53754 0.15623
-1.75781 0.61766 0.61622
1.29219 -1.39972 0.63021
-1.86020 -2.73542 0.17000
1.79423 -2.01713 0.02000
-2.29180 -2.20872 0.09500
-1.98650 0.18616 0.02000
-0.46684 0.91669 0.00000
-1.42319 0.69683 0.00000
-2.50806 -2.67693 0.06100
-2.12743 -0.64141 0.02000
-1.75781 1.85399 0.08016
-1.79181 0.48867 0.03394
3.83475 4.77968 -0.00000
-2.68981 4.19458 0.68573
2.22419 3.05081 0.35424
-2.10763 -3.27362 0.00000
-0.29632 4.50765 -0.00000
-2.68981 -0.73853 0.05771
3.16876 -0.04641 0.02000
-0.37982 -3.83693 0.80808
-0.42358 -3.86893 0.09767
-1.48045 -0.90360 0.02000
-2.33854 -2.85819 0.32000
2.25619 1.62228 0.32907
3.01935 -0.71466 0.02000
2.78272 -1.34159 0.18830
-0.36191 -0.24102 0.02000
4.28954 2.31352 0.00000
-2.67017 1.55454 0.03600
-0.35541 -2.60441 0.00000
-3.30361 -1.43394 0.02000
1.29219 2.19668 0.55184
-1.75781 3.48973 0.02077
-1.75781 3.09700 0.64932
-2.65074 -3.07380 0.47000
-1.73303 0.67702 0.00000
3.17143 -3.03112 0.02000
0.86924 0.08099 0.00000
-0.69643 -0.25136 0.02000
3.18819 1.72564 0.05351
1.88649 -2.91679 0.82000
